# .PCD v0.7 - Point Cloud Data file format
VERSION 0.7
FIELDS x y z
SIZE 4 4 4
TYPE F F F
COUNT 1 1 1
WIDTH 1495
HEIGHT 1
VIEWPOINT 0 0 0 1 0 0 0
POINTS 1495
DATA ascii
3.0078561 -4.4060473 -0.49771503
4.0270777 -5.8990502 -0.49945635
4.5450435 -6.6577907 -0.37592831
4.5397382 -6.6500196 -0.18693976
4.5511103 -6.6666775 0
4.5450435 -6.6577907 0.37592831
0.89990395 -1.3182211 -0.49804661
4.5557723 -6.6735072 0.56502742
0.96904814 -1.4195067 -0.49283963
4.5437822 -6.6559434 0.75186741
1.0450523 -1.530841 -0.48522979
1.1575973 -1.6957022 -0.48648009
4.5459013 -6.6590476 1.1331475
1.3092462 -1.9178445 -0.4935824
4.5443134 -6.6567216 1.3242005
1.460518 -2.1394346 -0.48806095
4.5433416 -6.6552978 1.5182474
1.6921533 -2.4936709 -0.49511608
1.9939642 -2.9384398 -0.49907479
2.4048257 -3.5439129 -0.50084186
2.9955404 -4.4144297 -0.49771503
4.0184307 -5.9218297 -0.50043297
4.5163369 -6.6555777 -0.37508976
4.5144138 -6.6527438 -0.18666124
4.5223684 -6.6644669 0
4.5197024 -6.6605377 0.37536931
4.5281563 -6.6729956 0.56391138
0.96292126 -1.4190255 -0.49173707
4.5173507 -6.6570716 0.75056684
1.0342548 -1.5241475 -0.48219073
1.1626922 -1.7134215 -0.49063015
4.5206161 -6.6618838 1.1314774
1.3027869 -1.9198745 -0.4931666
4.5168419 -6.656322 1.3216065
1.4578487 -2.1483839 -0.48917189
4.5225315 -6.6647067 1.5175066
1.6847469 -2.4986806 -0.49511608
1.9819151 -2.9394166 -0.49823973
2.384305 -3.5362089 -0.49875113
2.9813159 -4.4216471 -0.49752927
4.0053039 -5.9403434 -0.50099099
4.4887509 -6.6573534 -0.3744376
4.4879479 -6.6561627 -0.18638271
4.4936295 -6.6645885 0
4.4898677 -6.6590099 0.37453076
0.88375783 -1.3107184 -0.49328062
4.4949527 -6.6665511 0.5622372
0.96408057 -1.4298465 -0.49449342
4.4897852 -6.6588874 0.74926639
1.0351362 -1.5352305 -0.48472324
1.1565152 -1.7152503 -0.49016905
4.4930792 -6.6637726 1.129529
1.2970848 -1.9237316 -0.4931666
4.4893484 -6.6582398 1.3193369
1.4470726 -2.1461813 -0.48769063
4.4840574 -6.650393 1.5112115
1.6740305 -2.4987495 -0.49414337
1.9665711 -2.9354117 -0.49656966
2.3793309 -3.5515194 -0.49991265
2.9692919 -4.4321275 -0.49771503
4.0032077 -5.9754066 -0.50294417
4.4634199 -6.6623445 -0.37397182
4.4603887 -6.6578207 -0.18605776
4.4671564 -6.6679225 0
4.461195 -6.6590238 0.37378544
0.87880242 -1.3117485 -0.49268484
4.4718218 -6.6748857 0.56181866
0.95020354 -1.4183258 -0.48953199
4.4600339 -6.6572905 0.74759436
1.0316535 -1.5399024 -0.48522979
1.1470882 -1.7122066 -0.48832455
4.4633665 -6.6622653 1.1270239
1.2989932 -1.9389484 -0.49607736
4.4618845 -6.6600533 1.3170671
1.4450743 -2.156997 -0.48917189
4.4577422 -6.6538701 1.5089897
1.6709836 -2.510277 -0.49544036
1.975412 -2.9676123 -0.50102317
2.3643796 -3.5519488 -0.49898341
2.9550252 -4.4392605 -0.49752927
3.9633498 -5.954042 -0.50015396
4.4336686 -6.6605902 -0.37313327
4.4317513 -6.6577096 -0.18568636
4.4362707 -6.6644988 0
4.4347758 -6.6622529 0.37322643
0.87808031 -1.3191181 -0.49447212
4.4442582 -6.6764984 0.56084204
0.94386047 -1.4179381 -0.48842943
4.4314342 -6.6572332 0.74610811
1.0152867 -1.5252399 -0.47965822
1.1430814 -1.7172227 -0.48878568
4.436995 -6.6655874 1.1253538
1.2954025 -1.9460509 -0.49690899
4.4344492 -6.6617627 1.3147975
1.438668 -2.1612751 -0.48917189
4.4379802 -6.6670671 1.5089897
1.6578703 -2.5047688 -0.4934949
1.9523323 -2.9496524 -0.49712637
2.3627477 -3.5697222 -0.50060958
2.9411945 -4.4436603 -0.49715769
3.9609625 -5.9843616 -0.50182807
4.4096003 -6.662179 -0.37257427
4.4076853 -6.659286 -0.18540785
4.4132881 -6.6677513 0
4.4084973 -6.6605129 0.37248111
0.87567759 -1.3230046 -0.49506786
4.4190555 -6.676465 0.55986542
0.94863397 -1.4332297 -0.49283963
4.404098 -6.6538663 0.74443597
1.0155618 -1.5343465 -0.48168424
1.1396559 -1.7218324 -0.48924685
4.4053187 -6.6557107 1.1217353
1.2805856 -1.9347539 -0.4931666
4.4050112 -6.6552463 1.3112308
1.4362593 -2.1699512 -0.4902828
4.4118328 -6.6655521 1.5060273
1.6543295 -2.5165613 -0.49479184
1.9397923 -2.9508064 -0.49629134
2.3482478 -3.5721476 -0.49991265
2.9217508 -4.4445586 -0.49622878
3.9224157 -5.9667673 -0.49931684
4.3765769 -6.6576362 -0.37154946
4.374661 -6.6547217 -0.18489721
4.3802347 -6.6631999 0
4.3787718 -6.660975 0.37173578
0.871517 -1.325749 -0.49506786
4.3881955 -6.6753106 0.55860984
0.94095844 -1.4313833 -0.49118578
4.3777037 -6.6593499 0.74350715
1.0096736 -1.5359126 -0.48117775
1.133172 -1.7237779 -0.48878568
4.3778601 -6.6595874 1.1200652
1.2777249 -1.9436713 -0.49441403
4.3754091 -6.6558595 1.3086369
1.4305147 -2.1760948 -0.49065307
4.3811536 -6.664598 1.5026945
1.63758 -2.5063019 -0.49187368
1.9369609 -2.9645019 -0.49768305
2.3306572 -3.5670507 -0.49828655
2.9136844 -4.4593682 -0.49697191
3.9046464 -5.976027 -0.49917731
4.3492255 -6.6564517 -0.37080413
4.3473105 -6.6535211 -0.18452583
4.3550463 -6.66536 0
4.3525038 -6.661469 0.37108362
0.86258984 -1.3201861 -0.49208909
4.3597155 -6.6725063 0.55735421
0.93169963 -1.4259582 -0.48842943
4.3492866 -6.6565452 0.74183506
1.0074972 -1.5419656 -0.48219073
1.1272893 -1.7253063 -0.48832455
4.3538284 -6.6634965 1.1186734
1.2765723 -1.9537828 -0.49607736
4.3524866 -6.6614428 1.3073399
1.420132 -2.1734996 -0.48917189
4.3463998 -6.6521268 1.4971399
1.635949 -2.519141 -0.4934949
1.9351468 -2.9798653 -0.49935311
2.3260965 -3.5818748 -0.49944803
2.9044738 -4.4724979 -0.49752927
4.2226233 -6.5022707 -0.54214734
4.3240914 -6.6585178 -0.3702451
4.3200016 -6.6522202 -0.18415447
4.3277016 -6.6640773 0
4.3230038 -6.6568427 0.37015197
0.8620193 -1.3273935 -0.49387637
4.331286 -6.6695962 0.55609864
0.92876107 -1.4301667 -0.48898068
4.3230891 -6.6569743 0.7405346
1.0063486 -1.5496411 -0.48371026
1.1256467 -1.7333441 -0.48970792
4.3265743 -6.6623411 1.1164467
1.265784 -1.9491367 -0.49399823
4.3252687 -6.6603303 1.304746
1.4236909 -2.192292 -0.4925046
4.320313 -6.6526999 1.4945478
1.6252577 -2.5190086 -0.49252215
1.9252236 -2.9839296 -0.49907479
2.3208439 -3.5971067 -0.50060958
2.8976688 -4.4911356 -0.49864393
4.0042882 -6.2062998 -0.51647693
4.2967353 -6.6595674 -0.36959293
4.2904897 -6.6498871 -0.18373667
4.3003201 -6.6651239 0
4.294569 -6.6562095 0.36940661
0.85290182 -1.3219239 -0.49089763
4.3006616 -6.6656528 0.55470347
0.93180984 -1.4442245 -0.49283963
4.2957616 -6.6580582 0.73923409
1.0006975 -1.5509943 -0.48320377
1.1215541 -1.7383116 -0.49016905
4.3024931 -6.6684914 1.1153332
1.2652985 -1.9611028 -0.49607736
4.2958593 -6.6582098 1.3018279
1.4246391 -2.2080669 -0.49509671
4.2962933 -6.6588826 1.4930665
1.6184008 -2.5257638 -0.49284643
1.9201137 -2.9966333 -0.50018817
2.3148901 -3.6127427 -0.50177103
2.888917 -4.5085998 -0.49957287
4.1064019 -6.4086733 -0.53224194
4.2682476 -6.6612577 -0.36894077
4.2631049 -6.6532321 -0.18345813
4.2707281 -6.6651287 0
4.2671695 -6.6595755 0.36884761
0.85183465 -1.3294193 -0.49268484
4.275394 -6.672411 0.5541454
0.92311913 -1.4406697 -0.49063453
4.267303 -6.6597838 0.73793358
0.99373221 -1.5508722 -0.48219073
1.1129377 -1.7369106 -0.48878568
4.2687001 -6.6619644 1.1119932
1.2527986 -1.9551852 -0.4935824
4.2664022 -6.6583781 1.2992338
1.4123933 -2.2042575 -0.49324518
4.2742925 -6.670692 1.4926963
1.6154065 -2.5347035 -0.49381915
1.9202371 -3.0130074 -0.50213659
2.3071234 -3.6200633 -0.50200331
2.8725405 -4.5072484 -0.49864393
4.10467 -6.4405594 -0.53405553
4.2433686 -6.6581888 -0.36819544
4.2393136 -6.6518259 -0.18313318
4.2469053 -6.6637378 0
4.2444425 -6.6598735 0.36828861
0.84345329 -1.3234465 -0.4897061
4.2569337 -6.6794734 0.55386639
0.92062944 -1.4445421 -0.49118578
4.240315 -6.6533976 0.73607576
0.99201953 -1.556559 -0.48320377
1.112874 -1.7461894 -0.49063015
4.2428298 -6.6573434 1.1094881
1.2480174 -1.9582404 -0.4935824
4.2405744 -6.6538043 1.2963158
1.4112285 -2.2143319 -0.49472645
4.2474174 -6.6645417 1.4889933
1.6148235 -2.5514393 -0.49608883
1.9097027 -3.0173516 -0.50185823
2.292552 -3.6222579 -0.50130641
2.8551714 -4.5112033 -0.49808663
4.1036215 -6.4837685 -0.53656679
4.2128143 -6.6562939 -0.36735693
0.84031242 -1.3277031 -0.49030185
4.179378 -6.6034641 0.54647225
0.91608667 -1.4474273 -0.49118578
0.97988141 -1.5482236 -0.47965822
1.1000972 -1.738166 -0.48740232
4.1657572 -6.581943 1.0947356
1.240813 -1.9604986 -0.4931666
4.191153 -6.6220689 1.2875613
1.3958561 -2.2054684 -0.49176401
4.2001815 -6.6363339 1.4797357
1.6072458 -2.5562193 -0.49608883
1.8912534 -3.0079148 -0.49935311
2.2828517 -3.6307263 -0.50153875
2.8428335 -4.5213408 -0.49827239
4.0758696 -6.4824042 -0.5354507
4.1856012 -6.6569252 -0.36670476
4.1230354 -6.5574183 -0.17983724
4.1284051 -6.5659585 0
4.1271138 -6.5639048 0.36158061
0.83738548 -1.3318069 -0.49089763
4.1332164 -6.5736103 0.54298437
0.91690463 -1.4582769 -0.49394217
4.1116147 -6.5392542 0.72065568
0.98249239 -1.5625899 -0.48320377
1.0980427 -1.7463651 -0.48878568
4.1166916 -6.5473285 1.086942
1.2391558 -1.9707961 -0.49482986
4.1242137 -6.5592923 1.2729703
1.3945369 -2.2179196 -0.49361551
4.1135173 -6.5422802 1.4560362
1.6032389 -2.5657187 -0.49706155
1.8734008 -2.9980681 -0.49684802
2.2695463 -3.6320331 -0.50084186
2.8333626 -4.534328 -0.49882975
4.0746679 -6.5208321 -0.53768289
4.1606441 -6.6584225 -0.36614579
4.0866961 -6.540081 -0.17904808
4.1026354 -6.565589 0
4.1013575 -6.5635438 0.36092842
0.83062804 -1.3292828 -0.48911035
4.1032143 -6.5665154 0.54144979
0.91282886 -1.4608315 -0.49394217
4.093338 -6.5507102 0.72065568
0.97709984 -1.5636866 -0.48269728
1.0952243 -1.7527252 -0.48970792
4.0941944 -6.5520806 1.0858287
1.2326108 -1.9725896 -0.49441403
4.0901942 -6.5456786 1.2681068
1.384172 -2.2151382 -0.49213433
4.0941911 -6.5520754 1.4556658
1.5878865 -2.5590041 -0.49479184
1.8691939 -3.0123532 -0.49823973
2.2497454 -3.6256418 -0.49898341
2.8275027 -4.5567436 -0.50031602
3.9899938 -6.4301891 -0.5291726
4.1302247 -6.6561828 -0.36530727
4.0661292 -6.5528874 -0.17904808
4.0819883 -6.5784454 0
4.0680766 -6.5560255 0.35981041
0.82242119 -1.3253965 -0.48672736
4.0762525 -6.5692019 0.5406127
0.90316665 -1.4555242 -0.49118578
4.0559392 -6.5364652 0.71768314
0.97932333 -1.5782566 -0.48624277
1.0856081 -1.749543 -0.48786345
4.0694127 -6.5581789 1.0847152
1.2233132 -1.9714656 -0.4931666
4.062326 -6.5467582 1.2658371
1.3782421 -2.2211459 -0.4925046
4.0570059 -6.5381846 1.449741
1.5734833 -2.5516696 -0.49252215
1.8649329 -3.0243042 -0.49935311
2.2542095 -3.655582 -0.50223565
2.8158128 -4.5663166 -0.50050181
4.0107684 -6.5041394 -0.5343346
4.10533 -6.6574869 -0.36474827
4.0488644 -6.5659184 -0.17909451
4.0478559 -6.5642834 0
4.0434618 -6.557157 0.35925141
0.82272536 -1.3341883 -0.48911035
4.0557981 -6.5771627 0.54033363
0.89405322 -1.4498585 -0.48842943
4.0334892 -6.5409856 0.71694005
0.97491229 -1.5809852 -0.48624277
1.0858257 -1.7608502 -0.49016905
4.0438066 -6.5577164 1.0827668
1.2219105 -1.9815346 -0.49482986
4.0378132 -6.5479975 1.2638917
1.3710028 -2.2233131 -0.49213433
4.0387325 -6.5494881 1.449741
1.5688608 -2.5591452 -0.49317065
1.8528687 -3.0224223 -0.49823973
2.2477462 -3.6665514 -0.50293255
2.8080118 -4.5804634 -0.50124496
3.9165642 -6.3887477 -0.52401066
4.0816221 -6.6579924 -0.36418927
4.0170312 -6.5526304 -0.17844459
0.82721251 -1.3493593 -0.49387637
0.89829302 -1.4653066 -0.49283963
4.0350857 -6.5820818 0.7202841
0.96268034 -1.570336 -0.48219073
1.0812123 -1.7636868 -0.49016905
4.0369763 -6.585166 1.0855502
1.2187636 -1.9880623 -0.4956615
4.0134373 -6.5467682 1.261622
1.3662049 -2.2285702 -0.4925046
4.0226002 -6.5617146 1.4501113
1.5608131 -2.5640612 -0.49317065
1.8464535 -3.0333037 -0.49907479
2.2382817 -3.6769886 -0.50339717
2.787395 -4.5790567 -0.50013024
3.8663888 -6.3515983 -0.51996475
4.0544519 -6.6605434 -0.36363026
3.9912269 -6.5566792 -0.17821249
4.049499 -6.6524067 0
4.0471802 -6.6485977 0.3629781
0.81701279 -1.3421664 -0.49030185
4.0500088 -6.653244 0.54465854
0.88868678 -1.4599105 -0.49008325
4.0319896 -6.6236429 0.72344249
0.96478432 -1.5849215 -0.48573628
1.074654 -1.7654124 -0.48970792
4.0368643 -6.6316504 1.0911171
1.2094601 -1.9868683 -0.49441403
4.0154252 -6.5964313 1.2687552
1.3530649 -2.2227783 -0.4902828
4.0224042 -6.6078963 1.4575174
1.5485398 -2.5599666 -0.49154943
1.8328506 -3.0299747 -0.49768305
2.2238927 -3.6764255 -0.50246793
2.7776892 -4.5919337 -0.5006876
3.9560313 -6.5399089 -0.53447407
4.0275645 -6.658164 -0.36288494
3.9666929 -6.5575337 -0.17793396
4.0433283 -6.6842237 0
4.0472116 -6.6906428 0.36465511
0.8182025 -1.3526106 -0.49328062
4.0469036 -6.690134 0.54675126
0.88858688 -1.4689664 -0.49228835
4.0413065 -6.680881 0.72845864
0.9543463 -1.5776765 -0.48269728
1.0687128 -1.7667414 -0.48924685
4.0470328 -6.6903472 1.0989109
1.2069448 -1.9952594 -0.4956615
4.020483 -6.6464567 1.2762128
1.3458354 -2.2248662 -0.48991248
4.0314026 -6.6645088 1.4675156
1.5526834 -2.5851212 -0.49544036
1.8274014 -3.0425093 -0.49879643
2.2174456 -3.6919088 -0.50362951
2.7550468 -4.5869813 -0.4992013
3.9262204 -6.5369124 -0.5332185
3.9973691 -6.6553702 -0.36204642
3.9398947 -6.559679 -0.17765543
4.0439343 -6.7328982 0
4.0416012 -6.7290144 0.3660526
0.81788111 -1.361721 -0.49566358
4.0392199 -6.725049 0.54856491
0.88495737 -1.4733988 -0.49283963
4.0295253 -6.7089081 0.73013067
0.95436609 -1.5889601 -0.48522979
1.0651611 -1.7734268 -0.49016905
4.0351715 -6.7183089 1.101416
1.2046996 -2.0057497 -0.49732482
4.0158405 -6.6861243 1.2814007
1.3428868 -2.2358229 -0.49139369
4.0337205 -6.7158933 1.4760326
1.5519806 -2.5993438 -0.49738577
1.8285679 -3.0625875 -0.50130159
2.2067544 -3.6959956 -0.50339717
2.7460914 -4.5993071 -0.49975863
3.902957 -6.53689 -0.53238142
3.9737868 -6.65552 -0.36148742
3.9093831 -6.5476532 -0.17705196
4.0416732 -6.7692199 0
4.0413823 -6.7687325 0.36763644
0.81137723 -1.3589399 -0.49387637
4.0481925 -6.780139 0.55219227
0.88011152 -1.4740598 -0.49228835
4.0354271 -6.7587585 0.73440367
0.95119482 -1.5931141 -0.48573628
1.0575217 -1.7711964 -0.48878568
4.0338144 -6.7560577 1.1058695
1.1944302 -2.0004983 -0.49524572
4.0195694 -6.7321987 1.2882098
1.3380365 -2.2410183 -0.49176401
4.029223 -6.7483673 1.4808465
1.5428003 -2.6025093 -0.49706155
1.8179271 -3.0666132 -0.50102317
2.1971581 -3.7063279 -0.50386178
2.7316282 -4.6079116 -0.49975863
3.8681574 -6.5250926 -0.53042823
3.9467452 -6.6576605 -0.36092842
3.8826756 -6.549583 -0.17677343
4.0428243 -6.8197336 0
4.0374165 -6.8106112 0.36922029
0.8109982 -1.3680515 -0.49625936
4.0400977 -6.8151345 0.55400592
0.87547618 -1.4768176 -0.49228835
4.0334678 -6.8039503 0.73793358
0.94026536 -1.5861088 -0.48269728
1.0588988 -1.7862284 -0.49201351
4.0317583 -6.8010669 1.1111581
1.1901345 -2.0076065 -0.49607736
4.0155077 -6.7736545 1.2937218
1.3259782 -2.2367575 -0.48991248
4.0290494 -6.7964969 1.4886229
1.5379857 -2.6099398 -0.49771002
1.8108983 -3.0730684 -0.50130159
2.1904731 -3.7172017 -0.50455868
2.7296658 -4.6322036 -0.50161648
3.8510618 -6.5351968 -0.53042823
3.9232168 -6.6576428 -0.36036944
3.8624706 -6.5545573 -0.17663416
4.0432334 -6.8613091 0
4.0418868 -6.859024 0.37126994
0.80256754 -1.3619456 -0.49328062
4.0435133 -6.8617845 0.55693567
0.873559 -1.4824171 -0.49339089
4.035861 -6.8487988 0.74164927
0.9351275 -1.586898 -0.48219073
1.0502669 -1.782288 -0.49016905
4.0330443 -6.8440185 1.1164467
1.1838814 -2.0090299 -0.4956615
4.0208058 -6.8232498 1.3011793
1.3241092 -2.2469943 -0.49139369
4.0282059 -6.8358073 1.4949181
1.522714 -2.6005998 -0.49511608
1.801309 -3.0764041 -0.50102317
2.1760695 -3.7164469 -0.50362951
2.7217507 -4.6484003 -0.50254542
3.8096113 -6.5063262 -0.52721941
3.8985536 -6.6582279 -0.35981041
3.8360701 -6.5515141 -0.1762628
4.0452795 -6.9088173 0
4.0489635 -6.9151092 0.37369227
0.80165535 -1.3691242 -0.49506786
4.0424824 -6.9040403 0.55944693
0.86747324 -1.4815327 -0.49228835
4.0358386 -6.892693 0.74517918
0.9385134 -1.6028602 -0.48624277
1.0413525 -1.778496 -0.48832455
4.035933 -6.8928542 1.1225703
1.1782666 -2.0123279 -0.4956615
4.0196857 -6.8651066 1.3070157
1.3208088 -2.2557714 -0.4925046
4.0279703 -6.8792548 1.501954
1.5249888 -2.6244054 -0.49868277
1.7821418 -3.0669489 -0.49851811
2.1607392 -3.7184899 -0.50293255
2.7003181 -4.6470699 -0.50143069
3.7759857 -6.4982233 -0.5255453
3.87043 -6.6607556 -0.35925141
3.8082957 -6.5538263 -0.17598426
4.0163178 -6.9118185 0
4.0089464 -6.8991332 0.37210846
0.79711068 -1.371775 -0.49506786
4.0145531 -6.908782 0.55874932
0.85965765 -1.4794143 -0.49063453
4.0049548 -6.8922644 0.74369293
0.93805325 -1.614328 -0.48877528
1.0383823 -1.7869875 -0.48970792
4.0090728 -6.8993506 1.121457
1.1647068 -2.004384 -0.49275076
3.9968979 -6.8783989 1.3070157
1.3152958 -2.2635376 -0.49324518
4.0031605 -6.8891759 1.5012133
1.5092292 -2.6130078 -0.49576455
1.7830216 -3.087039 -0.50102317
2.1470227 -3.717253 -0.50200331
2.684159 -4.6472254 -0.5006876
3.7050755 -6.4147921 -0.51801157
3.8449855 -6.6570253 -0.35850608
3.7811246 -6.5464597 -0.17552005
3.9902065 -6.9084539 0
3.9828775 -6.8957648 0.37136313
0.7935167 -1.3738571 -0.49506786
3.9894674 -6.9071746 0.55777276
0.85578167 -1.4816598 -0.49063453
3.9829135 -6.8958273 0.74294972
0.92414695 -1.6000241 -0.48371026
1.0337005 -1.7896998 -0.48970792
3.9830725 -6.8961024 1.1192303
1.1623909 -2.0125084 -0.49399823
3.9739413 -6.8802934 1.3053944
1.3005184 -2.2516558 -0.48991248
3.9821618 -6.8945255 1.5001024
1.5034333 -2.620898 -0.49641305
1.7679412 -3.0820081 -0.49935311
2.1478448 -3.7442844 -0.50479096
2.6812577 -4.67417 -0.5027312
3.6890042 -6.4309497 -0.51843011
3.8202457 -6.65974 -0.35804024
3.7596943 -6.5541816 -0.17542721
3.959739 -6.902915 0
3.9564347 -6.8971543 0.37080413
0.78658682 -1.3712373 -0.49328062
3.9639921 -6.9103289 0.5570752
0.85616469 -1.4925307 -0.49339089
3.9545083 -6.8937964 0.74146348
0.91650724 -1.5977243 -0.48219073
1.0371008 -1.8079522 -0.49385801
3.9556952 -6.8958654 1.1172818
1.1515473 -2.0074639 -0.49191913
3.9446716 -6.8766479 1.3024763
1.2987216 -2.264029 -0.49176401
3.9558196 -6.8960824 1.4978805
1.5015121 -2.6356359 -0.49835849
1.7627108 -3.0941236 -0.50046653
2.129843 -3.7385585 -0.50316489
2.6614633 -4.6717229 -0.50161648
3.6926219 -6.4817376 -0.52163887
3.7935472 -6.6588936 -0.35738808
3.7293441 -6.5461969 -0.17491657
3.9283507 -6.8955173 0
3.9290309 -6.8967113 0.37015197
0.78535014 -1.3785417 -0.49506786
3.9365585 -6.9099245 0.55609864
0.84887755 -1.4900528 -0.49173707
3.92418 -6.8881965 0.73960567
0.91559368 -1.607161 -0.48421675
1.025952 -1.8008753 -0.49109128
3.9293351 -6.8972454 1.1156117
1.1455861 -2.0108716 -0.49191913
3.9174128 -6.876318 1.3002067
1.2871341 -2.2593336 -0.48991248
3.9285312 -6.8958344 1.4952884
1.4877998 -2.6275368 -0.49608883
1.7565557 -3.1021748 -0.50102317
2.1229842 -3.7493079 -0.50386178
2.6590352 -4.6960034 -0.5034743
3.6707246 -6.4827027 -0.52094138
3.7701943 -6.6583719 -0.35682908
3.7102227 -6.5524588 -0.17482373
3.9112697 -6.9075189 0
3.9030862 -6.8930664 0.36940661
0.78361976 -1.3839159 -0.49625936
3.9125559 -6.90979 0.55526155
0.84686822 -1.4956162 -0.49283963
3.8933771 -6.8759193 0.73719049
0.9161495 -1.6179707 -0.48674926
1.0260282 -1.8120226 -0.49339688
3.9015057 -6.890275 1.1128281
1.1499568 -2.0308874 -0.49607736
3.8935621 -6.8762465 1.2982612
1.2841197 -2.2678266 -0.49102339
3.9036853 -6.8941245 1.4926963
1.4843726 -2.6407998 -0.49771002
1.7429194 -3.1007719 -0.49990982
2.1092482 -3.7524953 -0.50339717
2.6364632 -4.6904469 -0.50198805
3.6083035 -6.4194169 -0.51494229
3.7433839 -6.6597338 -0.35627007
3.6876595 -6.5605965 -0.17473088
3.8826895 -6.907568 0
3.8765168 -6.8965864 0.36894077
0.77833259 -1.3847065 -0.49566358
3.8830075 -6.908134 0.5541454
0.84122336 -1.4965935 -0.49228835
3.8610232 -6.8690219 0.73514688
0.90916586 -1.6174678 -0.48573628
1.0241446 -1.8220228 -0.49524131
3.8769281 -6.8973184 1.1119932
1.1406951 -2.0293739 -0.49482986
3.8613031 -6.8695202 1.2946945
1.2750627 -2.2684231 -0.4902828
3.8743029 -6.8926477 1.4897338
1.4659499 -2.6262364 -0.49414337
1.7298505 -3.0990121 -0.49879643
2.1048825 -3.7708788 -0.50502324
2.6205935 -4.6947708 -0.50161648
3.5824344 -6.4179001 -0.51396573
3.7167916 -6.6586003 -0.35561791
3.6594069 -6.5557961 -0.17431308
3.8543794 -6.9050875 0
3.8482478 -6.8941026 0.36819544
0.77142912 -1.3820086 -0.49387637
3.8556871 -6.9074302 0.55316883
0.83959037 -1.5041188 -0.49394217
3.8066552 -6.8195896 0.72864443
0.90247673 -1.6167793 -0.48472324
1.0111459 -1.8114593 -0.49155241
3.8487244 -6.8949566 1.1097664
1.1270409 -2.019084 -0.49150327
3.8380187 -6.8757772 1.2937218
1.2712004 -2.2773445 -0.49139369
3.8480875 -6.8938155 1.487512
1.4662672 -2.6441271 -0.4967373
1.7211899 -3.1038306 -0.49879643
2.0895276 -3.7680557 -0.50386178
2.6074734 -4.7020702 -0.50161648
3.5567579 -6.4139194 -0.51284957
3.6943078 -6.6619644 -0.35524526
3.6342983 -6.5537486 -0.17398813
3.8282928 -6.9035797 0
3.8221989 -6.892591 0.36754328
0.77034456 -1.3891662 -0.49566358
3.8315458 -6.9094462 0.55247128
0.8335222 -1.5030949 -0.49283963
3.6939211 -6.6612668 0.71062338
0.90265 -1.6277534 -0.48725578
1.0089149 -1.8193814 -0.49293572
3.8246529 -6.897016 1.1083746
1.1195009 -2.0188017 -0.49067163
3.8121035 -6.8743858 1.2914522
1.2648361 -2.2808855 -0.49139369
3.8240561 -6.8959398 1.4856604
1.4512594 -2.634383 -0.49414337
1.729717 -3.1398501 -0.50380665
2.0828307 -3.7808359 -0.50479096
2.5962541 -4.7128224 -0.50198805
3.5282431 -6.4046054 -0.51131493
3.6708694 -6.663506 -0.35477939
3.608264 -6.5498624 -0.17361677
3.8022437 -6.9019818 0
3.7961879 -6.8909893 0.36689112
0.7673834 -1.3929845 -0.49625936
3.8054965 -6.9078865 0.55149466
0.82932144 -1.5054168 -0.49283963
3.6580086 -6.6401606 0.70727926
0.89530009 -1.6251838 -0.48573628
1.0028912 -1.8204875 -0.49247465
3.7986877 -6.8955269 1.1064262
1.1185784 -2.0304875 -0.49275076
3.7862253 -6.8729048 1.2891824
1.2632033 -2.2930162 -0.49324518
3.7962484 -6.891099 1.4823278
1.444384 -2.6404088 -0.49446762
1.7165916 -3.1380184 -0.5026933
2.0687437 -3.7817705 -0.50409406
2.5937281 -4.7414694 -0.50421751
3.50348 -6.4045429 -0.5104779
3.6434124 -6.6603465 -0.35403407
3.5849762 -6.5535221 -0.17343107
3.7769494 -6.9044595 0
3.769973 -6.891706 0.36633211
0.76141453 -1.3919052 -0.49506786
3.777324 -6.9051442 0.55037856
0.8230058 -1.5044973 -0.49173707
3.6440251 -6.6614671 0.70839399
0.88954568 -1.6261356 -0.48522979
0.9974854 -1.823455 -0.49247465
3.7706082 -6.8928671 1.1041995
1.1163045 -2.0406625 -0.49441403
3.7620282 -6.8771825 1.2878854
1.2554512 -2.2950299 -0.49287492
3.7672966 -6.8868136 1.4789951
1.4384272 -2.6481512 -0.49511608
1.7006558 -3.1309152 -0.50074488
2.0565655 -3.7861469 -0.50386178
2.575846 -4.7421441 -0.5034743
3.4777956 -6.402638 -0.50950128
3.6169593 -6.6588387 -0.3533819
3.5664699 -6.5658875 -0.1734775
3.7507188 -6.9050903 0
3.7437863 -6.8923278 0.36577308
0.76092637 -1.400869 -0.49745086
3.7520578 -6.9075556 0.54968101
0.82496172 -1.5187584 -0.49559599
3.6232934 -6.6704998 0.7082082
0.88009936 -1.620267 -0.48269728
0.9874261 -1.817856 -0.49016905
3.7444677 -6.8935823 1.1025294
1.1158473 -2.05428 -0.49690899
3.7350123 -6.8761749 1.2856158
1.2505122 -2.3021989 -0.49361551
3.7440319 -6.8927798 1.4778842
1.4361768 -2.6605911 -0.4967373
1.6839864 -3.1196711 -0.49823973
2.0485337 -3.7950137 -0.50432634
2.5568011 -4.7366052 -0.50217384
3.4733422 -6.4345446 -0.51131493
3.5966673 -6.6630106 -0.35310242
3.5397708 -6.5576067 -0.17301328
3.7259786 -6.9025664 0
3.7190869 -6.8897991 0.36512092
0.75181502 -1.3927759 -0.49387637
3.7292225 -6.908576 0.54898345
0.82098287 -1.5209129 -0.49559599
3.5991964 -6.667696 0.70690769
0.88228786 -1.6344835 -0.48624277
0.98821014 -1.8307099 -0.49293572
3.7198226 -6.8911619 1.1005809
1.1095363 -2.0554729 -0.49649313
3.6944993 -6.8442492 1.2778341
1.2332778 -2.2847104 -0.48917189
3.7213061 -6.8939104 1.4760326
1.4250151 -2.6598711 -0.49576455
1.6816596 -3.1389124 -0.50046653
2.0328486 -3.7944269 -0.50339717
2.5437887 -4.7481251 -0.50254542
3.45311 -6.4454246 -0.51131493
3.5681689 -6.6601887 -0.35235706
3.5068767 -6.545783 -0.1724098
3.692941 -6.8930826 0
3.6927061 -6.8926444 0.36465511
0.75014049 -1.4001796 -0.49566358
3.6980779 -6.9026713 0.54758835
0.81529278 -1.52179 -0.49504474
3.5791717 -6.6807261 0.70709348
0.87806219 -1.6389527 -0.48674926
0.97969675 -1.8286593 -0.49155241
3.6738367 -6.8574238 1.093344
1.1012255 -2.0554996 -0.4956615
3.4772606 -6.4905033 1.2097434
1.2298065 -2.2955034 -0.49065307
3.6838508 -6.8761153 1.4697374
1.4143364 -2.6588602 -0.49479184
1.6741991 -3.1473849 -0.50102317
2.0281119 -3.8127179 -0.50502324
2.5212729 -4.7398286 -0.50087333
3.4292862 -6.4468341 -0.51061738
3.5446396 -6.663691 -0.35198441
3.4883788 -6.5579243 -0.17245622
3.6677768 -6.8951807 0
3.6666098 -6.8929873 0.36409611
0.74508631 -1.4007136 -0.49506786
3.6738338 -6.9065676 0.54703027
0.81167692 -1.5258995 -0.49559599
3.5658805 -6.7036223 0.70839399
0.87319559 -1.6415507 -0.48674926
0.97609472 -1.8349943 -0.49247465
3.5223291 -6.6217484 1.0540972
1.095122 -2.0587578 -0.4956615
3.4570611 -6.4990492 1.2094191
1.2220675 -2.2974069 -0.4902828
3.54898 -6.6718507 1.4238198
1.4138143 -2.677006 -0.49738577
1.6694777 -3.1610954 -0.50241494
2.0223565 -3.8292582 -0.50641704
2.5044084 -4.7420063 -0.50031602
3.4222553 -6.4799156 -0.51243103
3.5183213 -6.6618133 -0.35133225
3.4586341 -6.5487976 -0.17194559
3.6454339 -6.9024959 0
3.6396105 -6.89147 0.36344394
0.73914373 -1.3995417 -0.49387637
3.6477346 -6.9068527 0.54619318
0.80535012 -1.5249012 -0.49449342
3.5422547 -6.7071304 0.70765084
0.86199623 -1.6321584 -0.48320377
0.96791923 -1.8327198 -0.49109128
3.4841678 -6.5971451 1.0485302
1.0935767 -2.0706475 -0.49774063
3.4248593 -6.4848461 1.2048798
1.2189169 -2.3079746 -0.49176401
3.4419715 -6.5172477 1.3886409
1.4040325 -2.6776934 -0.4967373
1.6490549 -3.1449864 -0.49907479
2.0091412 -3.831723 -0.50595248
2.5051239 -4.7776337 -0.50328857
3.4002347 -6.4847398 -0.51201248
3.4939013 -6.6633759 -0.35086641
3.4382601 -6.55726 -0.17189915
3.6202943 -6.9044256 0
3.6126533 -6.889853 0.36279178
0.73498803 -1.4017286 -0.49387637
3.6198142 -6.9035096 0.54507709
0.80260777 -1.5306892 -0.49559599
3.515866 -6.7052655 0.70635039
0.8652361 -1.6501305 -0.4877623
0.96247733 -1.8355836 -0.49109128
3.4130745 -6.5092273 1.0329429
1.0819775 -2.0634878 -0.49524572
3.3900237 -6.4652658 1.1993676
1.21754 -2.3220251 -0.49398583
3.4180562 -6.5187278 1.3867893
1.3938149 -2.6763523 -0.49576455
1.6420958 -3.1530921 -0.49963146
1.9993509 -3.8390803 -0.50618476
2.4862535 -4.774013 -0.50217384
3.3848777 -6.4995184 -0.51243103
3.4688206 -6.6607022 -0.35021421
3.4116237 -6.5508752 -0.17148137
3.5954568 -6.9038649 0
3.5887852 -6.8910542 0.36232594
0.73459834 -1.4105489 -0.49625936
3.5996003 -6.9118209 0.54493755
0.79744226 -1.5312194 -0.49504474
3.5017269 -6.7238874 0.70727926
0.85526258 -1.642244 -0.48472324
0.95824665 -1.8399903 -0.49155241
3.3903103 -6.5099497 1.0315511
1.0834398 -2.0803816 -0.49857226
3.3810723 -6.4922113 1.20261
1.2028804 -2.309727 -0.49065307
3.4007473 -6.5299907 1.3871596
1.3949664 -2.6957676 -0.49868277
1.6347454 -3.1591396 -0.49990982
1.9865541 -3.839009 -0.50548786
2.4810679 -4.7946548 -0.50366014
3.3678498 -6.508358 -0.51243103
3.4476981 -6.6626644 -0.34984156
3.3953803 -6.5615606 -0.17152779
3.5709357 -6.9008207 0
3.5652227 -6.8897805 0.36176693
0.72914809 -1.4090761 -0.49506786
3.5714064 -6.9017301 0.54340291
0.79166353 -1.529887 -0.49394217
3.483196 -6.7312641 0.70709348
0.85184938 -1.646196 -0.48522979
0.95253175 -1.8407642 -0.49109128
3.3996513 -6.5698142 1.0396231
1.0654025 -2.0588868 -0.49275076
3.3704126 -6.5133104 1.2048798
1.1995391 -2.318105 -0.49176401
3.3881557 -6.5475993 1.3890111
1.3828843 -2.693114 -0.49738577
1.6211938 -3.1572125 -0.49879643
1.9708543 -3.8381629 -0.50455868
2.460535 -4.7917972 -0.50254542
3.3519435 -6.5277805 -0.51312864
3.4194489 -6.659245 -0.34909624
3.3692696 -6.561523 -0.17124926
3.543757 -6.90133 0
3.5399098 -6.8938384 0.36139426
0.73169452 -1.4249469 -0.49983385
3.5451493 -6.9040418 0.54270536
0.78685331 -1.5323665 -0.49394217
3.463851 -6.7457166 0.70746505
0.84578967 -1.6471428 -0.48472324
0.94407713 -1.8385539 -0.48970792
3.3808041 -6.5839858 1.0401798
1.0625035 -2.0691848 -0.49441403
3.3499336 -6.5238667 1.2048798
1.1940461 -2.3253589 -0.4925046
3.3980937 -6.6176567 1.4016014
1.378945 -2.7039979 -0.49868277
1.626767 -3.1899567 -0.50325
1.9583235 -3.8401117 -0.50409406
2.4498584 -4.8039718 -0.50310278
3.3391402 -6.5477796 -0.51396573
3.3953941 -6.6580892 -0.34853724
3.3436668 -6.5566564 -0.17087789
3.5117509 -6.8862553 0
3.5124767 -6.8876781 0.36055574
0.72857988 -1.4286853 -0.50042957
3.5204179 -6.9032507 0.54186833
0.78257114 -1.5345578 -0.49394217
3.437763 -6.7411709 0.70597875
0.84030777 -1.6477746 -0.48421675
0.94335997 -1.8498515 -0.49201351
3.3705032 -6.6092801 1.042685
1.0638312 -2.0860858 -0.49774063
3.3308065 -6.5314379 1.2045555
1.1911197 -2.3356879 -0.49398583
3.4742477 -6.8127146 1.4408537
1.3686608 -2.7047946 -0.49803424
1.614949 -3.1915176 -0.5026933
1.9462495 -3.8462451 -0.50409406
2.4248638 -4.792099 -0.50105911
3.3275607 -6.5760398 -0.51536083
3.3681457 -6.6562452 -0.34788507
3.3203433 -6.5617766 -0.17073862
3.4919052 -6.9008231 0
3.4854083 -6.8879838 0.35999674
0.72150183 -1.4258566 -0.49864233
3.4942088 -6.9053755 0.54117072
0.77948231 -1.5404397 -0.49504474
3.418366 -6.7554922 0.70635039
0.83774763 -1.6555856 -0.48573628
0.93227178 -1.8423874 -0.48924685
3.3488283 -6.6180692 1.0424066
1.0484396 -2.0719624 -0.4935824
3.304033 -6.5295434 1.2022859
1.1846632 -2.341172 -0.49435613
3.4883227 -6.893743 1.4556658
1.3637609 -2.7138963 -0.49900699
1.6069196 -3.1977844 -0.50297159
1.9444209 -3.8694148 -0.50641704
2.4293554 -4.8344388 -0.50477487
3.3073926 -6.5817404 -0.51508182
3.3468542 -6.6602693 -0.34760556
3.2939267 -6.5549436 -0.17032082
3.4672332 -6.8998251 0
3.4607782 -6.8869796 0.35943776
0.71751732 -1.4278659 -0.49864233
3.4704328 -6.9061923 0.54047316
0.77517766 -1.5426104 -0.49504474
3.4012761 -6.7685699 0.7067219
0.82964617 -1.6510034 -0.48371026
0.92974466 -1.8502002 -0.49063015
3.3107705 -6.5884628 1.036283
1.0426496 -2.074882 -0.4935824
3.3105981 -6.5881195 1.2113645
1.1790034 -2.3462272 -0.49472645
3.4602337 -6.8858957 1.4519628
1.3513623 -2.7068629 -0.49706155
1.600312 -3.2055244 -0.50352836
1.9289606 -3.8638282 -0.50502324
2.4149117 -4.8372188 -0.50440323
3.2839124 -6.5778813 -0.5141052
3.3258371 -6.6618586 -0.34723291
3.2687171 -6.5474439 -0.16990303
3.4437981 -6.8981419 0
3.439167 -6.8888659 0.35906509
0.70951289 -1.4211985 -0.49566358
3.4496677 -6.9098992 0.54005462
0.77285397 -1.5480746 -0.49614727
3.3817661 -6.7738881 0.70635039
0.82618535 -1.6549007 -0.48421675
0.9266364 -1.8561105 -0.49155241
3.2988186 -6.607739 1.037953
1.0407095 -2.0846057 -0.49524572
3.3215482 -6.6532679 1.2217402
1.165834 -2.335238 -0.49176401
3.4378054 -6.8861384 1.4501113
1.3454795 -2.7164004 -0.49803424
1.5814427 -3.1927886 -0.50074488
1.9282744 -3.8930101 -0.50804317
2.4014709 -4.848351 -0.50477487
3.2650023 -6.5917416 -0.51438427
3.2995708 -6.6615329 -0.34667391
3.2472439 -6.5558891 -0.16985661
3.4194465 -6.9035506 0
3.4121873 -6.888895 0.35850608
0.70589191 -1.4251314 -0.49625936
3.4199724 -6.9046125 0.53879899
0.76286674 -1.5401584 -0.49283963
3.3595841 -6.7826939 0.70616454
0.82613474 -1.6678908 -0.48725578
0.91907293 -1.8555244 -0.49063015
3.2965038 -6.6553407 1.0437983
1.0411016 -2.1018891 -0.49857226
3.3645747 -6.7927694 1.2454098
1.1593641 -2.3406503 -0.49213433
3.410048 -6.8845763 1.4475192
1.3348782 -2.7128303 -0.4967373
1.5853205 -3.2217963 -0.50464171
1.9171989 -3.8962624 -0.50781089
2.390528 -4.8581939 -0.50514638
3.2477341 -6.6002665 -0.51438427
3.2777097 -6.6611848 -0.34620807
3.2265387 -6.5571918 -0.16967092
3.3942974 -6.8981223 0
3.3897305 -6.8888416 0.35804024
0.70637321 -1.4355397 -0.4992381
3.3974802 -6.9045911 0.53810143
0.75628561 -1.5369751 -0.49118578
3.3602788 -6.8289881 0.71006602
0.82091123 -1.6683117 -0.48674926
0.92710042 -1.8841166 -0.49754691
3.2773199 -6.6603932 1.0432416
1.0321405 -2.0975862 -0.49690899
3.3720486 -6.8529072 1.2548128
1.1584388 -2.3542583 -0.49435613
3.3894098 -6.8881893 1.4464083
1.3272147 -2.7187843 -0.49706155
1.569978 -3.2160823 -0.50297159
1.903206 -3.8986962 -0.50734627
2.372633 -4.860312 -0.50458902
3.2208555 -6.5978866 -0.51340765
3.248879 -6.655292 -0.34536958
3.2006598 -6.5565157 -0.16939239
3.3673451 -6.8979688 0
0.63836223 -1.3076777 -0.49169967
3.362813 -6.8886847 0.35748124
0.70269734 -1.4394677 -0.49983385
3.3713958 -6.9062662 0.53740388
0.75314009 -1.542799 -0.49228835
3.3344402 -6.8305635 0.70913708
0.81396842 -1.6674052 -0.48573628
0.91263932 -1.8695314 -0.49293572
3.2607236 -6.6795559 1.0446334
1.0341275 -2.1183987 -0.50106722
3.3531001 -6.8687878 1.2557856
1.1475881 -2.3508215 -0.49287492
3.3617175 -6.8864408 1.4438162
1.322968 -2.7318218 -0.49868277
1.567636 -3.2370412 -0.50547677
1.890083 -3.902868 -0.50711399
2.3556166 -4.8641572 -0.50421751
3.2009821 -6.6097684 -0.51354718
3.2262135 -6.661869 -0.34518322
3.1748173 -6.5557404 -0.16911386
3.3421714 -6.9013128 0
0.64085776 -1.3233192 -0.49682155
3.3359308 -6.8884263 0.35692224
0.69234669 -1.4296398 -0.49566358
3.3462048 -6.9096413 0.53684586
0.74912757 -1.5468878 -0.49283963
3.3190413 -6.8535509 0.7104376
0.82053244 -1.694333 -0.49282733
0.90506524 -1.8688862 -0.49201351
3.2440398 -6.698679 1.0460252
1.0291728 -2.1251583 -0.50189883
3.3289244 -6.8739591 1.2548128
1.1444806 -2.3632596 -0.49472645
3.335784 -6.888123 1.4419646
1.3162891 -2.7350461 -0.49868277
1.5528508 -3.2265849 -0.50325
1.872788 -3.8913651 -0.50502324
2.3333616 -4.8483663 -0.50198805
3.1848221 -6.6175699 -0.51354718
3.2064607 -6.6625314 -0.34481058
3.1561882 -6.5580735 -0.16897459
3.3200946 -6.8986454 0
0.63597906 -1.3214666 -0.4955411
3.3147578 -6.8875561 0.35645643
0.69050735 -1.434768 -0.49685511
3.3215246 -6.9016166 0.53559023
0.74617934 -1.5504458 -0.49339089
3.3057392 -6.8688169 0.71118069
0.80967766 -1.6823854 -0.48877528
0.89965212 -1.8693386 -0.49155241
3.2723241 -6.7993855 1.0604991
1.023977 -2.1276667 -0.50189883
3.3052719 -6.867846 1.252219
1.1369981 -2.3625069 -0.49398583
3.3129768 -6.8838558 1.4393724
1.3085402 -2.7409487 -0.49900699
1.5469726 -3.2403841 -0.50464171
1.8648325 -3.906193 -0.50618476
2.3215499 -4.8628607 -0.5027312
3.1597183 -6.6185403 -0.51284957
3.1803491 -6.6617551 -0.34425154
3.118341 -6.5318689 -0.16804616
3.2949586 -6.9018226 0
0.63182437 -1.3234581 -0.4955411
3.2896602 -6.8907247 0.35608375
0.68517387 -1.4352072 -0.49625936
3.2963874 -6.9048162 0.53503215
0.74296123 -1.5562522 -0.49449342
3.2850015 -6.8809662 0.71136653
0.79771966 -1.6709527 -0.48472324
0.89461327 -1.873912 -0.49201351
1.0097022 -2.1149843 -0.49815646
3.2802782 -6.8710723 1.2509221
1.1253365 -2.357199 -0.49213433
3.2879469 -6.8871355 1.4378912
1.3029367 -2.7501698 -0.4999797
1.5297197 -3.2288516 -0.50213659
1.8506827 -3.9063232 -0.50548786
2.3207524 -4.8985214 -0.50570375
0.62302727 -1.3150531 -0.49169967
0.68009496 -1.4355085 -0.49566358
2.9359109 -6.1969657 0.47950602
0.73669416 -1.5549752 -0.49339089
0.79275829 -1.6733123 -0.48472324
0.89154887 -1.8818343 -0.49339688
0.99253374 -2.0949879 -0.49275076
1.1250693 -2.3747368 -0.49509671
1.2957327 -2.7535713 -0.4999797
1.5322243 -3.2561414 -0.50575507
1.8379128 -3.9057622 -0.50479096
2.3062251 -4.9009762 -0.50533217
2.9188287 -6.2028246 -0.47936648
2.920228 -6.2057981 -0.31984183
2.9192085 -6.2036319 -0.15917964
2.9199953 -6.2053037 0
2.9134228 -6.1913366 0.31909651
0.67308313 -1.430374 -0.49328062
2.91713 -6.1992145 0.47908747
0.73343951 -1.5586379 -0.49394217
2.9141529 -6.1928883 0.63853925
0.79661316 -1.6928885 -0.48978829
0.88330507 -1.8771182 -0.49155241
2.9118166 -6.187923 0.96112949
0.99037778 -2.1046593 -0.49441403
2.9174993 -6.1999993 1.125765
1.1196855 -2.3794522 -0.49546704
2.91135 -6.1869316 1.2882884
1.2775365 -2.7359455 -0.49608883
1.52088 -3.2570844 -0.50519836
1.8254751 -3.909399 -0.50455868
2.3017828 -4.9294496 -0.50756156
3.079365 -6.5947032 -0.50894326
3.0285912 -6.4859667 -0.33381686
2.9329345 -6.2811108 -0.16094367
2.9074931 -6.2266259 0
0.62368953 -1.3356804 -0.49810204
2.8958843 -6.2017646 0.31918967
0.67125922 -1.4375546 -0.49506786
2.9004107 -6.2114582 0.47936648
0.72962481 -1.5625491 -0.49449342
2.8949218 -6.1997032 0.63835341
0.78503758 -1.6812199 -0.48573628
0.88020146 -1.8850209 -0.49293572
2.8942807 -6.1983304 0.9614079
0.97667927 -2.0916357 -0.49067163
2.8965845 -6.2032642 1.1247922
1.1151149 -2.3881066 -0.49657795
2.8913159 -6.1919813 1.2875478
1.281029 -2.7647932 -0.50062817
1.5112096 -3.2615826 -0.50519836
1.8230541 -3.934624 -0.50711399
2.2863102 -4.9344511 -0.50737578
3.0321064 -6.5440726 -0.50433934
3.0874438 -6.6635056 -0.34248137
3.033648 -6.5473995 -0.16753553
3.1950591 -6.8957672 0
0.62291008 -1.3444017 -0.50066298
2.8724315 -6.1994529 0.31863067
0.66538584 -1.4360753 -0.49387637
2.8760974 -6.207365 0.47838989
0.72417736 -1.5629628 -0.49394217
2.872329 -6.1992316 0.63742453
0.78492635 -1.6940747 -0.48877528
0.87296849 -1.8840926 -0.49201351
2.870882 -6.1961083 0.95973778
0.97951591 -2.1140497 -0.49524572
2.8706999 -6.1957154 1.1218741
1.1195923 -2.4163709 -0.50176221
2.8679743 -6.1898327 1.2853259
1.2650565 -2.7504296 -0.49738577
1.5037509 -3.2693884 -0.50575507
1.8145498 -3.9451134 -0.50781089
2.2733538 -4.9426246 -0.50756156
2.9512928 -6.4165697 -0.49387583
3.0638151 -6.661211 -0.34192237
3.0111747 -6.5467625 -0.16730341
3.1741188 -6.9010277 0
2.8492646 -6.1947446 0.3179785
0.66456413 -1.4448658 -0.49625936
2.8579185 -6.2135592 0.47825038
0.71981001 -1.5649788 -0.49394217
2.8491817 -6.1945639 0.63612407
0.78100109 -1.6980178 -0.48928177
0.87176985 -1.8953632 -0.49431911
2.8469472 -6.1897058 0.95751101
0.97197354 -2.1132216 -0.49441403
2.850913 -6.1983285 1.1209013
1.1095551 -2.4123454 -0.50028098
2.8441076 -6.1835322 1.2823634
1.2560709 -2.7523758 -0.49706155
1.4841766 -3.2522144 -0.50241494
1.7995375 -3.9432518 -0.50688171
2.2578521 -4.9475374 -0.50737578
2.9247863 -6.4089627 -0.4926202
3.0382311 -6.6575494 -0.34127021
2.9643431 -6.4956417 -0.16577151
3.1486468 -6.8994994 0
0.60571682 -1.3272822 -0.49298015
2.827554 -6.1959014 0.31760582
0.64838451 -1.420778 -0.48732311
2.8328431 -6.2074914 0.47713426
0.71596152 -1.5688567 -0.49449342
2.8258288 -6.192121 0.63500935
0.77354968 -1.6950473 -0.4877623
0.86210245 -1.8890892 -0.49201351
2.8244581 -6.1891179 0.9561193
0.96651143 -2.1178763 -0.49482986
2.829232 -6.1995783 1.1196043
1.1056565 -2.4227793 -0.50176221
2.822484 -6.184792 1.2808822
1.2441628 -2.7491164 -0.49576455
1.4772184 -3.2640789 -0.50352836
1.7912353 -3.9579344 -0.50804317
2.2316236 -4.9310212 -0.5049606
2.8470545 -6.290884 -0.48285431
0.59920031 -1.3239999 -0.49105945
2.8031321 -6.1938334 0.31704682
0.65178955 -1.4402016 -0.49328062
2.8100369 -6.2090898 0.47657624
0.71499258 -1.5798558 -0.49724984
2.8038979 -6.1955252 0.63445199
0.77061379 -1.7027571 -0.48928177
0.85857052 -1.8971074 -0.49339688
2.8017337 -6.190743 0.95500588
0.9590463 -2.1191199 -0.49441403
2.8024178 -6.1922545 1.1166862
1.0842633 -2.3958008 -0.49546704
2.7981772 -6.1828847 1.2786604
1.2426248 -2.7649646 -0.49803424
1.4678566 -3.2661281 -0.50325
1.7898256 -3.9825411 -0.51059854
2.2187073 -4.9368463 -0.5049606
2.8461154 -6.3328919 -0.48550507
2.8417785 -6.3232417 -0.32328904
2.8367236 -6.3119941 -0.16066514
2.8342087 -6.3063984 0
0.59650892 -1.3272922 -0.49169967
2.7852705 -6.1975055 0.3168605
0.64879978 -1.4436445 -0.49387637
2.7888658 -6.2055058 0.47573915
0.70376158 -1.56594 -0.49228835
2.7835879 -6.1937623 0.63352305
0.76139492 -1.69418 -0.48624277
0.85360128 -1.8993484 -0.49339688
2.7830822 -6.1926365 0.95417088
0.95349556 -2.1216233 -0.49441403
2.7845798 -6.1959691 1.1160377
1.0804049 -2.4040091 -0.49657795
2.7787595 -6.1830187 1.2771792
1.2368261 -2.7740474 -0.49900699
1.4694499 -3.2957938 -0.50714684
1.7755737 -3.9823916 -0.50990158
2.2072926 -4.9506831 -0.50570375
2.8874326 -6.4761534 -0.49582902
2.9596789 -6.6381927 -0.33894104
2.865206 -6.426302 -0.16335759
2.9954727 -6.7184734 0
0.59256792 -1.3290564 -0.49169967
2.7611737 -6.1929703 0.31620833
0.64373577 -1.4438195 -0.49328062
2.7671905 -6.2064652 0.4751811
0.7014606 -1.573289 -0.49394217
2.759521 -6.1892633 0.63222253
0.76030391 -1.7052673 -0.48877528
0.85430163 -1.9160926 -0.49708584
2.7590494 -6.1882057 0.95222247
0.94719601 -2.1244431 -0.49441403
2.758146 -6.1861796 1.1127954
1.0724665 -2.4054093 -0.49620762
2.7563992 -6.1822615 1.2753278
1.2249132 -2.770699 -0.49771002
1.4590888 -3.3003938 -0.50714684
1.7566284 -3.9734149 -0.50804317
2.1901186 -4.9539504 -0.50533217
2.7928555 -6.3173141 -0.48299381
2.8241014 -6.3879914 -0.32571134
2.8021548 -6.3383489 -0.16089724
0.58915591 -1.3326443 -0.49233994
2.7408972 -6.1997867 0.31611517
0.63610899 -1.43885 -0.49089763
2.7436459 -6.2060041 0.47448355
0.69651461 -1.575485 -0.49394217
2.7344275 -6.185153 0.63092208
0.75337845 -1.7041084 -0.4877623
0.84355658 -1.9080873 -0.49431911
2.7315874 -6.1787286 0.94943899
0.93735331 -2.1202514 -0.49275076
2.7323148 -6.1803741 1.1102014
1.0625205 -2.403374 -0.49509671
2.7298117 -6.1747117 1.2719949
1.2298585 -2.8030248 -0.50289792
1.4554372 -3.3171508 -0.50909525
1.740737 -3.9673901 -0.50664937
2.1794767 -4.9673414 -0.50607532
2.7984505 -6.3780713 -0.48703972
2.8255172 -6.4397602 -0.32794735
2.7852476 -6.34798 -0.16094367
2.7811766 -6.3387022 0
0.5877161 -1.3394896 -0.49426061
2.7195601 -6.1982694 0.31564933
0.62978721 -1.4353757 -0.48911035
2.7214952 -6.2026792 0.47364646
0.6928848 -1.5791842 -0.49449342
2.7115443 -6.1799998 0.62962162
0.74395251 -1.6955749 -0.48472324
0.8413527 -1.917564 -0.49616361
2.7127311 -6.1827044 0.94888228
0.92985696 -2.1192777 -0.49191913
2.7126667 -6.1825581 1.1092287
1.0629121 -2.4225297 -0.49842948
2.7086096 -6.1733108 1.2701434
1.2188745 -2.7992103 -0.50160092
1.4382612 -3.3030436 -0.50631177
1.7272718 -3.9667723 -0.50595248
2.1719563 -4.9880142 -0.50756156
2.8706343 -6.5925651 -0.50280464
2.9024358 -6.6655993 -0.3390342
2.8465354 -6.537221 -0.1655394
3.0038004 -6.8983884 0
0.58246028 -1.3376511 -0.49298015
2.6958594 -6.191186 0.314904
0.62958741 -1.4458812 -0.49208909
2.699384 -6.1992798 0.47280937
0.68847209 -1.5811131 -0.49449342
2.6903002 -6.1784186 0.62869263
0.74462157 -1.7100633 -0.48826879
0.8305558 -1.9074159 -0.49293572
2.6891294 -6.1757293 0.94665551
0.92315394 -2.1200726 -0.49150327
2.6898756 -6.177443 1.106959
1.0530041 -2.4182804 -0.49694824
2.6874363 -6.1718416 1.268292
1.2147676 -2.8138974 -0.50354636
1.4318019 -3.3166378 -0.50770354
1.7266109 -3.9995356 -0.50943696
2.1594322 -5.0021262 -0.50830472
2.8451641 -6.5905614 -0.50196761
2.8743541 -6.6581769 -0.33819571
2.8323236 -6.5608172 -0.16591077
2.9710155 -6.8820844 0
2.6732283 -6.1922879 0.31453133
0.62277174 -1.4425935 -0.49030185
2.6767316 -6.2004027 0.47225133
0.68350142 -1.5832682 -0.49449342
2.6669304 -6.1776991 0.62776375
0.73004329 -1.6910782 -0.48219073
0.82301658 -1.9064424 -0.49201351
2.6665742 -6.1768742 0.9455421
0.92269194 -2.137331 -0.49482986
2.6688905 -6.1822395 1.1063105
1.0469596 -2.4251859 -0.49768889
2.6649175 -6.1730361 1.2668108
1.2032218 -2.8059742 -0.50160092
1.4197911 -3.3110251 -0.50631177
1.7183993 -4.0073943 -0.50990158
2.1283684 -4.9634633 -0.50384593
2.8424191 -6.6286659 -0.50433934
2.8580768 -6.6651807 -0.33819571
2.8068287 -6.5456672 -0.16535372
2.8170433 -6.5694885 0
0.57796729 -1.3478491 -0.4955411
2.6565154 -6.1951289 0.31434497
0.62074989 -1.4476203 -0.49149337
2.6584282 -6.1995897 0.47169325
0.68038851 -1.5867006 -0.49504474
2.6479039 -6.1750464 0.62683481
0.72819662 -1.6981915 -0.48371026
0.81988984 -1.9120249 -0.49293572
2.6483514 -6.1760902 0.94442874
0.91515386 -2.1341853 -0.4935824
2.6514435 -6.183301 1.1053377
1.04258 -2.4313495 -0.49842948
2.6467278 -6.1723037 1.2653295
1.1905404 -2.8006592 -0.4999797
1.4117069 -3.3209369 -0.50714684
1.7050241 -4.0109444 -0.50966924
2.1182184 -4.9829535 -0.50514638
2.8176782 -6.6283817 -0.50364172
2.8324344 -6.663094 -0.33763671
2.781558 -6.5434117 -0.16507518
2.7924793 -6.5691028 0
0.57373017 -1.3496581 -0.4955411
2.6323509 -6.1924129 0.313786
0.62292123 -1.4653766 -0.49685511
2.6365976 -6.2024026 0.47127476
0.67464834 -1.5870608 -0.49449342
2.6222594 -6.168673 0.62534857
0.72361505 -1.7022513 -0.48421675
0.81844723 -1.9253372 -0.49570248
2.6242871 -6.1734433 0.94275862
0.91915935 -2.162255 -0.49940395
2.628145 -6.1825185 1.1037165
1.0295544 -2.4219513 -0.49583736
2.6204045 -6.1643095 1.2619967
1.1814587 -2.802361 -0.49965549
1.4041553 -3.3305862 -0.50798184
1.6877137 -4.0031729 -0.50804317
2.1080656 -5.0002265 -0.50626111
2.7972236 -6.6348748 -0.50350225
2.8072188 -6.6585832 -0.33698454
2.7605772 -6.5479512 -0.16498235
2.7675369 -6.5644593 0
0.56972301 -1.3513546 -0.4955411
2.6131892 -6.1983547 0.31369281
0.61708713 -1.4636999 -0.49566358
2.6150823 -6.2028446 0.47071669
0.66918951 -1.5872841 -0.49394217
2.6016238 -6.1709218 0.6247912
0.71705782 -1.7008253 -0.48320377
0.80743879 -1.9152044 -0.49247465
2.6028807 -6.173903 0.94164526
0.91045964 -2.1595647 -0.49815646
2.6059556 -6.1811967 1.1020954
1.0238906 -2.4286175 -0.49657795
2.5998118 -6.1666241 1.2608858
1.1777065 -2.8167784 -0.50160092
1.3927393 -3.3310828 -0.50742519
1.6750627 -4.0063295 -0.50781089
2.1039748 -5.0321803 -0.50886208
2.7744472 -6.6357818 -0.50294417
2.7866797 -6.6650391 -0.33689138
2.7357383 -6.5431995 -0.1646574
2.7457335 -6.5671058 0
2.5901635 -6.1950212 0.31313381
0.61274165 -1.4655243 -0.49566358
2.592819 -6.2013726 0.47001913
0.66596031 -1.59281 -0.49504474
2.5779262 -6.1657524 0.62349075
0.71424729 -1.7083004 -0.48472324
0.80400491 -1.9229782 -0.49385801
2.5799673 -6.1706347 0.9399752
0.90631211 -2.1676712 -0.49940395
2.5845594 -6.1816177 1.1007984
1.0181967 -2.4352713 -0.49731857
2.5784714 -6.167057 1.2594047
1.1698358 -2.8200564 -0.50160092
1.3811549 -3.3294713 -0.50659013
1.6669127 -4.0183315 -0.50874007
2.0922029 -5.0435543 -0.50941944
2.7513185 -6.6324468 -0.50210708
2.7649944 -6.6654143 -0.3365187
2.7182212 -6.5526609 -0.16470382
2.724318 -6.567358 0
2.5682602 -6.1911588 0.31257483
0.6079151 -1.4654663 -0.49506786
2.5724332 -6.2012181 0.46946108
0.66150969 -1.5946636 -0.49504474
2.5576458 -6.1655707 0.6227476
0.71762884 -1.729947 -0.49029481
0.8016144 -1.9324062 -0.49570248
2.5612075 -6.1741571 0.93941855
0.89051062 -2.1467032 -0.49399823
2.5635056 -6.179697 1.0991771
1.0159106 -2.4489977 -0.49954039
2.5589802 -6.1687875 1.2582937
1.1599621 -2.8198647 -0.50095242
1.3682564 -3.3262279 -0.50547677
1.6481816 -4.0067253 -0.50664937
2.0757143 -5.0460563 -0.50904787
2.729351 -6.6350455 -0.50168854
2.7391257 -6.6588073 -0.33577338
2.7177839 -6.6069255 -0.16586435
2.6994948 -6.5624652 0
2.5468397 -6.1913605 0.31220216
0.60429072 -1.4690291 -0.49566358
2.5494688 -6.197752 0.468624
0.65677541 -1.5966194 -0.49504474
2.5355532 -6.1639233 0.62181866
0.70807666 -1.7213326 -0.48725578
0.7914353 -1.9239773 -0.49293572
2.5391104 -6.1725707 0.93802679
0.88488156 -2.1511447 -0.49441403
2.5436578 -6.1836257 1.0985287
1.0093876 -2.4538188 -0.49991068
2.5376754 -6.1690822 1.2568125
1.1505917 -2.8194382 -0.50030398
1.3604593 -3.333703 -0.50603342
1.6384876 -4.0149903 -0.50711399
2.0578532 -5.042614 -0.50811893
2.7077968 -6.635252 -0.50113052
2.7152364 -6.653482 -0.33512118
2.5235014 -6.1836505 0.31145683
0.60018611 -1.4707109 -0.49566358
2.5276287 -6.1937637 0.46778691
0.65376711 -1.602007 -0.49614727
2.515321 -6.1636052 0.62107551
0.7061913 -1.7304685 -0.48928177
0.78605956 -1.9261798 -0.49293572
2.518122 -6.1704683 0.93663508
0.89069778 -2.1825879 -0.50106722
2.5211601 -6.1779132 1.096259
0.99362004 -2.4347911 -0.49546704
2.5167253 -6.1670461 1.254961
1.1422211 -2.82284 -0.50030398
1.3483332 -3.3322175 -0.50519836
1.6288029 -4.0253592 -0.50781089
2.0421352 -5.0468521 -0.50793314
2.6843555 -6.6340098 -0.50043297
2.6947336 -6.659658 -0.33502805
2.6924353 -6.6539779 -0.16665351
2.6961615 -6.663187 0
2.5028949 -6.185555 0.31117731
0.59510362 -1.4707155 -0.49506786
2.5062466 -6.1938386 0.46722886
0.64612639 -1.5968112 -0.49394217
2.4932873 -6.1618114 0.62014657
0.70250517 -1.7361435 -0.49029481
0.78253084 -1.9339157 -0.49431911
2.4983168 -6.1742411 0.93607837
0.8761462 -2.165273 -0.49649313
2.4991176 -6.1762199 1.0946379
0.98344266 -2.4304411 -0.49398583
2.4984159 -6.1744866 1.254961
1.1343338 -2.8260186 -0.50030398
1.3427116 -3.3451595 -0.50659013
1.6205157 -4.0372658 -0.50874007
2.0243251 -5.0432949 -0.5070042
2.6628468 -6.6340733 -0.49987489
