# .PCD v0.7 - Point Cloud Data file format
VERSION 0.7
FIELDS x y z
SIZE 4 4 4
TYPE F F F
COUNT 1 1 1
WIDTH 1526
HEIGHT 1
VIEWPOINT 0 0 0 1 0 0 0
POINTS 1526
DATA ascii
3.586597 4.5561166 -0.13462262
0.79051298 1.0042024 -0.49904996
3.6085939 4.5840597 0
2.4400566 3.0996463 -1.4358007
3.5606253 4.5231242 0.13364777
2.4307129 3.0877769 -1.3278452
3.5737832 4.5398388 0.26943856
2.436265 3.09483 -1.2290313
3.555377 4.5164576 0.4019368
2.6554124 3.3732166 -1.2309965
3.5104647 4.4594045 0.52948409
0.85209477 1.0824308 -0.36063004
3.4735851 4.4125557 0.65671611
0.79809391 1.0138326 -0.30572161
3.5134478 4.4631939 0.79829693
0.75628591 0.96072316 -0.25988963
3.507144 4.4551859 0.93154454
5.3928518 6.8506336 -1.6426696
6.2696528 7.9216928 -1.65979
0.54104733 0.68361217 -0.48983902
7.417747 9.3723068 -1.6798195
0.57754725 0.72972965 -0.49482304
0.61668462 0.77917969 -0.49912256
10.607162 13.402126 -1.594583
0.64956272 0.82072109 -0.49542859
0.67693418 0.85530484 -0.48564357
0.73643142 0.93047953 -0.49565393
0.79313916 1.0021296 -0.49904996
2.4364989 3.078511 -1.4289601
2.4340844 3.0754604 -1.3252844
2.4431736 3.0869446 -1.2284355
2.6809378 3.3873589 -1.2387145
0.85372472 1.0786793 -0.36012354
0.80316073 1.0147918 -0.30664384
0.7648688 0.9664101 -0.26196876
5.2947278 6.689877 1.4016942
5.4010091 6.8241634 -1.639707
4.6106176 5.8255053 1.39975
0.51339841 0.64450681 -0.48866883
6.2809806 7.8849778 -1.6562233
0.5486241 0.68872821 -0.49473742
7.4422164 9.342762 -1.678706
0.57983673 0.72791177 -0.49482304
0.6191293 0.77723861 -0.49912256
10.682712 13.410795 -1.5995994
0.65326399 0.82009041 -0.49628425
0.68644804 0.86174875 -0.49052444
0.74395019 0.93393546 -0.49873731
11.266882 14.144147 -0.41983691
0.7962833 0.99963307 -0.49904996
2.429764 3.050262 -1.4193835
2.4307475 3.0514965 -1.3182417
2.4457214 3.0702944 -1.2248609
2.7023461 3.3924539 -1.2436758
0.85831463 1.0775056 -0.36063004
0.82453281 1.0350968 -0.31356061
6.2452426 7.8401132 1.4087102
0.77277642 0.97012317 -0.26363203
5.3366203 6.6994524 1.4072062
5.4395642 6.8286858 -1.6448914
4.6448145 5.8309779 1.4045639
6.2979031 7.863884 -1.6552505
0.54933554 0.68592846 -0.49375772
7.4728432 9.3309736 -1.6800978
0.58284444 0.72776937 -0.49576199
0.61892778 0.77282482 -0.49732712
10.73646 13.406092 -1.602386
0.65879899 0.82261008 -0.49885118
0.6875599 0.85852242 -0.48971096
0.74639291 0.93198431 -0.49873731
11.300127 14.109916 -0.41969761
0.80122703 1.000453 -0.50050491
2.4259942 3.0292201 -1.4125432
11.300127 14.109916 0.41969761
2.4268847 3.0303321 -1.3118393
2.4573324 3.0683508 -1.2266482
11.334255 14.152531 1.2678937
2.7148242 3.3898683 -1.2453296
0.86355186 1.078275 -0.36164308
0.83210629 1.0390104 -0.3154051
6.2471776 7.8005452 1.4045349
0.78387409 0.97878522 -0.26654282
5.3307028 6.656188 1.4010456
5.4537387 6.8098168 -1.6437804
4.6625228 5.8218641 1.4053044
6.3262949 7.8486671 -1.6562233
0.55039376 0.6828416 -0.49277806
7.4959083 9.2997389 -1.678706
0.58291179 0.72318488 -0.49388412
0.62247443 0.77226794 -0.49822479
10.796021 13.393998 -1.6049869
0.65570807 0.81349897 -0.49457288
0.67764121 0.84071016 -0.48076272
0.75279182 0.93394518 -0.50104988
11.262843 13.973156 -0.41668025
0.80202812 0.99502975 -0.49904996
11.28596 14.001836 0
2.4272437 3.0113404 -1.4077549
11.281664 13.996506 0.41737655
2.4256923 3.0094156 -1.3060774
2.4657626 3.0591288 -1.2260525
2.73632 3.3947935 -1.2502911
0.85965014 1.0665181 -0.35860404
0.83414537 1.0348758 -0.31494397
0.79922229 0.99154872 -0.27070105
5.3540673 6.6424809 1.4016942
5.4923749 6.8140712 -1.6489646
4.6326885 5.747508 1.3908627
6.363101 7.849369 -1.6601143
0.55010241 0.6785931 -0.49081874
7.5268364 9.2849255 -1.6798195
0.58826506 0.72566968 -0.49670097
0.62800485 0.77469176 -0.50091791
10.896083 13.441147 -1.6142762
0.65683877 0.81026059 -0.49371722
0.6880402 0.84874994 -0.48645705
0.74726182 0.92180425 -0.49565393
11.28419 13.919907 -0.41603035
0.80832303 0.99712795 -0.50123239
11.292269 13.929872 0
2.4202576 2.9855719 -1.3988624
11.280413 13.915247 0.41589105
2.4233475 2.9893835 -1.3003153
2.4754975 3.0537145 -1.2266482
11.277326 13.911439 1.2522683
2.7639489 3.4095411 -1.2585602
2.8157151 3.4733987 -1.1705282
0.8370319 1.0325425 -0.31494397
6.3108196 7.7848759 1.4084319
0.80321985 0.99083275 -0.27111685
5.3763232 6.6321034 1.4026668
4.7192674 5.8215752 1.41197
6.3725266 7.8162708 -1.6568718
0.55089355 0.67570263 -0.48983902
7.5614991 9.2746143 -1.6817679
0.59028947 0.724024 -0.49670097
0.63016599 0.77293485 -0.50091791
10.923512 13.398316 -1.61279
0.65681458 0.80562085 -0.49200591
0.70079863 0.85956985 -0.49377832
11.254443 13.804222 -0.83058256
0.75333178 0.92400473 -0.49796647
11.244688 13.792257 -0.41315219
0.81110471 0.99486655 -0.50123239
11.288158 13.845576 0
2.4190857 2.9671478 -1.3933901
11.314178 13.87749 0.41570538
2.423306 2.9723241 -1.2958336
2.4864292 3.0497484 -1.2278398
11.294701 13.853601 1.2498965
2.7783198 3.4077692 -1.2607654
2.8290725 3.4700203 -1.1720477
0.84237182 1.0332175 -0.31586623
6.3150148 7.7457294 1.4045349
0.83070743 1.0189104 -0.27943334
5.37113 6.5879998 1.3965062
6.3932939 7.7916365 -1.6558992
0.55190748 0.67262077 -0.48885936
7.6056728 9.269187 -1.6851081
0.59032059 0.71943569 -0.49482304
0.63145727 0.76956975 -0.50002027
11.011022 13.419354 -1.6194781
0.65934211 0.80355352 -0.49200591
0.72087997 0.87855095 -0.50598043
0.75974268 0.92591375 -0.50027901
11.289227 13.758408 -0.41319859
0.80831718 0.98511249 -0.49759498
11.301149 13.77294 0
2.4164734 2.9450049 -1.3865497
11.276545 13.742952 0.41273439
2.4218142 2.9515138 -1.2900715
2.4984195 3.0448744 -1.2290313
2.7890112 3.3990242 -1.2607654
2.8460956 3.4685941 -1.1745801
0.85302025 1.039593 -0.31863293
6.3167033 7.6982942 1.3995248
0.85375893 1.0404932 -0.2860865
5.4255991 6.6122875 1.4052607
6.4351234 7.7981086 -1.6610869
0.56599122 0.68587041 -0.49963585
7.6390891 9.2570791 -1.6867782
0.59345114 0.71914649 -0.49576199
0.63360369 0.76780349 -0.50002027
11.078869 13.425418 -1.6239369
0.67078793 0.81286347 -0.49885118
0.7279821 0.88217157 -0.50923431
0.75645214 0.91667169 -0.49642479
11.295787 13.688279 -0.41203806
0.8146221 0.98716235 -0.49977744
11.319198 13.716648 0
2.4127257 2.9237504 -1.3797094
11.304695 13.699074 0.41236302
2.4179866 2.9301257 -1.2836691
2.4984057 3.0275779 -1.2248609
11.323372 13.721707 1.244037
2.8033862 3.3971546 -1.2629704
2.8557699 3.4606335 -1.1745801
0.85220379 1.032704 -0.31724957
6.3205271 7.6592398 1.395628
0.86164171 1.0441408 -0.2877498
5.4528351 6.6077671 1.4075304
0.81562233 0.98837435 -0.24143834
6.4645352 7.7865748 -1.6627082
0.56134093 0.67613888 -0.49375772
7.6627245 9.2298021 -1.685943
0.59783822 0.72010005 -0.49763989
0.63131249 0.76042002 -0.49642941
11.145365 13.424664 -1.6278384
0.67550611 0.81365156 -0.50056255
0.73876572 0.88984811 -0.51492858
11.325816 13.642019 -0.82685584
0.76388371 0.92010295 -0.49950814
0.81754738 0.98474115 -0.49977744
11.285747 13.593756 0
2.4105849 2.9035654 -1.3735529
11.309526 13.622398 0.41106322
2.4206176 2.9156497 -1.2804679
2.5183532 3.0333729 -1.2302227
11.279921 13.586739 1.2348292
2.8159089 3.3917809 -1.264073
2.8672607 3.4536343 -1.1750867
0.85899335 1.0346631 -0.31863293
6.328042 7.6221681 1.3922879
0.86598533 1.043085 -0.28816563
5.4459419 6.5596728 1.4007213
6.4912233 7.7771978 -1.6643294
0.56646121 0.67868268 -0.4966968
7.6754432 9.196023 -1.6834379
0.59632695 0.71446508 -0.49482304
0.63902736 0.76562488 -0.50091791
11.226413 13.450475 -1.6345266
0.67415911 0.80771655 -0.49799553
0.71767783 0.85985678 -0.49865916
11.297488 13.53563 -0.82219762
0.75091708 0.89968103 -0.48948717
11.308001 13.548225 -0.40971696
0.82251042 0.98545772 -0.50123239
2.409749 2.8871439 -1.3687646
11.327218 13.57125 0.41041332
2.4161022 2.8947554 -1.2740656
2.533627 3.0355632 -1.2337973
11.271989 13.505079 1.2300856
2.8297076 3.3903 -1.2662781
2.8775332 3.4476004 -1.1755933
0.92779213 1.1115968 -0.34307221
6.361937 7.6222987 1.3953495
2.9433465 3.5264521 -0.97635335
5.4466586 6.5256944 1.3965062
6.5118141 7.7522335 -1.6633565
0.56634742 0.67422956 -0.49473742
7.7208538 9.1915798 -1.6870564
0.59970415 0.71394032 -0.49576199
0.64142936 0.76361364 -0.50091791
11.308316 13.462409 -1.640286
0.67204231 0.80005795 -0.49457288
0.72507614 0.86319405 -0.50191307
11.275704 13.423585 -0.81753922
0.75136566 0.89449143 -0.48794547
11.311924 13.466704 -0.40832433
0.82680035 0.98429549 -0.50195986
11.294391 13.445831 0
2.4091363 2.8680468 -1.3632923
11.314496 13.469767 0.40841717
2.4154344 2.8755445 -1.2689438
2.5456066 3.0305128 -1.2349888
11.324625 13.481824 1.2312018
2.8440533 3.3858099 -1.2679319
2.8895938 3.4400253 -1.1760997
2.9302762 3.488457 -1.0794785
6.3896723 7.6068254 1.3961847
2.9619596 3.526176 -0.97884834
5.4633236 6.5040183 1.3955336
6.5436277 7.7460775 -1.6659505
0.57160389 0.67664117 -0.49767646
7.7656655 9.1926756 -1.6912316
0.60169578 0.71226269 -0.49576199
0.64240617 0.76045394 -0.50002027
11.336875 13.420126 -1.6389855
0.66960788 0.79265422 -0.49115023
0.71215618 0.84302121 -0.4913379
0.75862461 0.89802861 -0.49102885
11.315942 13.395347 -0.40711737
0.82593936 0.97771305 -0.49977744
11.316411 13.395902 0
2.4062216 2.8483863 -1.3571359
11.354651 13.441169 0.40851
2.4161193 2.8601029 -1.2651023
2.5577567 3.0277672 -1.2367761
11.274681 13.346503 1.2217149
2.8572204 3.3822601 -1.2695858
2.9004385 3.4334199 -1.1766063
6.4275069 7.6086183 1.3998032
5.484014 6.4917502 1.3961821
5.6719871 6.7142653 -1.6560004
6.5690665 7.7322879 -1.6669233
0.56220192 0.66175419 -0.48787969
7.7528362 9.1256742 -1.6828814
0.60368234 0.71057975 -0.49576199
0.64337003 0.75729519 -0.49912256
11.325311 13.330748 -1.6319257
0.66947788 0.78802609 -0.48943892
0.68375045 0.80482602 -0.47018757
11.302643 13.304065 -0.8140921
0.75754476 0.89168745 -0.4887163
11.296343 13.29665 -0.40507483
0.83228499 0.97966236 -0.50195986
11.289027 13.288039 0
2.4044316 2.8301978 -1.3516636
11.302814 13.304267 0.40530691
2.4142826 2.8417931 -1.2599804
2.5674374 3.022068 -1.2373718
11.311906 13.314969 1.2217149
2.8654089 3.372803 -1.2690344
2.9150255 3.4312055 -1.1786323
2.9459341 3.4675872 -1.0780952
6.4615507 7.6057343 1.4025866
2.9765418 3.5036147 -0.97718507
5.5123425 6.4884439 1.3987759
5.6868968 6.6939077 -1.6548896
4.8139477 5.6663804 1.4008609
6.5919132 7.7154145 -1.6672475
0.56518012 0.66150737 -0.48885936
7.793725 9.1220589 -1.6862214
0.60795838 0.71157652 -0.49763989
0.64548212 0.75549567 -0.49912256
11.327563 13.258191 -1.6269094
0.67754692 0.79302555 -0.49371722
0.69905049 0.81819403 -0.47913581
11.257989 13.176759 -0.80822253
0.76602566 0.89658421 -0.49257058
11.324336 13.254414 -0.4047499
0.82654601 0.96741951 -0.49686751
11.29231 13.216929 0
2.4025586 2.8120418 -1.3461913
11.287969 13.211847 0.40345004
2.4160542 2.8278375 -1.2567792
11.333259 13.264857 0.81362623
2.583307 3.0235963 -1.2409463
11.286835 13.210521 1.2150183
2.8748155 3.3647885 -1.2690344
2.9245951 3.4230523 -1.1786323
2.9530771 3.4563885 -1.077173
6.4596066 7.5605583 1.3975765
2.9837713 3.4923143 -0.97635335
5.5278745 6.4700251 1.3981274
5.701736 6.6735187 -1.6537786
4.8182607 5.6394672 1.3975281
6.6122618 7.690177 -1.6662749
0.56839252 0.6610505 -0.48983902
7.8313856 9.1080389 -1.6881698
0.61134237 0.71100187 -0.49857882
0.64901781 0.7548191 -0.50002027
11.40292 13.261797 -1.6317399
0.67414236 0.78403938 -0.48943892
0.7182945 0.83538908 -0.49052444
0.76522923 0.88997501 -0.49025801
11.33594 13.183898 -0.40368217
0.83565456 0.97188091 -0.50050491
11.331172 13.178352 0
2.3966782 2.7873788 -1.3379828
11.285101 13.124771 0.40187174
2.4162798 2.8101759 -1.2522976
2.5915492 3.0140173 -1.2403505
11.328285 13.174994 1.2150183
2.8878801 3.3586552 -1.2701371
2.9315512 3.4094455 -1.1771127
2.9651909 3.4485691 -1.0776341
2.9985557 3.4873729 -0.97760087
5.5288754 6.4301791 1.3932639
5.7226753 6.6555719 -1.6537786
4.8192973 5.6049275 1.3927141
6.6557579 7.6917529 -1.6711384
0.57046634 0.6592617 -0.48983902
7.8625517 9.0863886 -1.6887265
0.60895085 0.70373648 -0.49482304
0.65138578 0.75277656 -0.50002027
0.6825164 0.78875273 -0.49371722
0.7137419 0.82483864 -0.48564357
0.76922882 0.88896227 -0.49102885
11.305344 13.065064 -0.40112901
0.83748448 0.96784222 -0.49977744
2.4017334 2.7755725 -1.3359307
11.326276 13.089255 0.40187174
2.4114578 2.7868106 -1.245255
2.614747 3.0217426 -1.2469038
11.326535 13.089555 1.2104144
2.8946431 3.3452055 -1.2684832
2.9422472 3.4002194 -1.1771127
2.9709158 3.4333506 -1.0757897
6.4745855 7.4823799 1.3906177
3.0030956 3.4705393 -0.9755218
5.5529222 6.4172559 1.3942366
5.7384109 6.6316171 -1.6522975
4.851028 5.6061091 1.3967874
6.6797562 7.6787691 -1.672111
0.57333469 0.65908164 -0.49081874
7.8915105 9.0717506 -1.6898398
0.61310905 0.7048046 -0.49670097
0.65335417 0.75106871 -0.50002027
11.412453 13.11928 -1.6222649
0.68457884 0.78696322 -0.49371722
11.339811 13.035774 -1.2081822
0.72669119 0.83537388 -0.4929648
11.318446 13.011214 -0.80421633
0.7679196 0.88276833 -0.4887163
11.304074 12.994692 -0.39987561
0.84123796 0.96705204 -0.50050491
11.31237 13.004229 0
2.4052906 2.7650218 -1.3338785
11.297512 12.987148 0.39964348
2.4112835 2.7719109 -1.2414137
11.321071 13.01423 0.80440271
2.6314199 3.0249705 -1.2510741
11.296599 12.986099 1.2035782
2.9021282 3.3361657 -1.2679319
2.9498687 3.3910458 -1.1766063
2.9798934 3.4255612 -1.0757897
6.5266476 7.5027618 1.3975765
3.0096023 3.4597135 -0.97469008
5.6033797 6.4414115 1.4026668
5.7725205 6.635849 -1.6571114
4.8514972 5.5770788 1.3927141
6.6882167 7.6425781 -1.6685445
0.57299125 0.65475309 -0.48885936
7.9157863 9.0453129 -1.6892833
0.61519784 0.70298219 -0.49670097
0.656757 0.75047159 -0.50091791
11.461823 13.097345 -1.6237513
0.6904825 0.78900951 -0.49628425
11.396838 13.023087 -1.2101353
0.73037016 0.83458883 -0.49377832
11.405687 13.033198 -0.80766356
0.7802586 0.89159596 -0.49488309
11.382087 13.00623 -0.40126824
0.84655768 0.96735549 -0.50195986
11.361446 12.982645 0
2.4035835 2.746558 -1.3284062
11.357068 12.977641 0.40038621
2.4182503 2.7633176 -1.2407734
11.409636 13.03771 0.80794305
2.6479287 3.0257695 -1.2546486
11.377131 13.000566 1.2080426
2.9044187 3.3188586 -1.2646242
2.9586439 3.3808215 -1.1760997
2.9900453 3.4167037 -1.0757897
6.6010537 7.5429778 1.4087102
3.0172789 3.4478233 -0.97385842
5.6068726 6.4069338 1.3987759
5.794775 6.6216488 -1.6578519
4.8732023 5.568574 1.3941953
0.54892361 0.62372816 -0.49274954
6.7199616 7.6357245 -1.6711384
0.58172894 0.66100407 -0.49473742
7.938396 9.0202007 -1.6887265
0.61715835 0.70126164 -0.49670097
0.65766925 0.74729317 -0.50002027
11.536504 13.108641 -1.6291388
0.69029438 0.78436428 -0.49457288
11.435795 12.994207 -1.2104144
0.73149061 0.83117449 -0.4929648
11.449954 13.010297 -0.80822253
0.78274518 0.88941377 -0.49488309
11.435533 12.99391 -0.40187174
0.84556311 0.96079224 -0.49977744
11.467684 13.030443 0
2.4087601 2.7370141 -1.3270382
11.432892 12.990909 0.40177891
2.419698 2.7494423 -1.2375722
11.435437 12.993801 0.80719769
2.6639347 3.0269625 -1.2582229
11.458203 13.01967 1.2127861
2.9111342 3.3078492 -1.2635217
2.9642379 3.3681893 -1.1745801
7.8729119 8.9457932 1.3935761
2.9995742 3.4083414 -1.0757897
3.0268946 3.4393847 -0.97385842
5.6377792 6.4060678 1.4020184
3.0656834 3.4834595 -0.87428826
4.8679576 5.5313382 1.3882705
6.7203293 7.5932841 -1.6659505
0.58010572 0.65546006 -0.4917984
7.963553 8.9979992 -1.6887265
0.62145478 0.70218027 -0.49857882
0.66449136 0.75080723 -0.50361103
11.554585 13.055498 -1.6265379
0.69727421 0.78784847 -0.49799553
0.73259777 0.82776052 -0.49215135
11.486239 12.978274 -0.80822253
0.80112588 0.90519023 -0.50490409
11.510201 13.005349 -0.40321797
0.84330386 0.95284706 -0.49686751
11.50535 12.999867 0
2.3989556 2.7105742 -1.3174616
11.516827 13.012836 0.40345004
2.427366 2.7426751 -1.2375722
2.676173 3.0238013 -1.2600102
11.518314 13.014516 1.2152973
2.9139893 3.2925096 -1.2607654
2.9685023 3.3541038 -1.1725541
7.8662648 8.8880739 1.388001
3.0039206 3.3941226 -1.073945
3.0300043 3.4235945 -0.97177935
5.63341 6.3651767 1.3965062
3.059768 3.4572246 -0.86984462
4.9055281 5.5427446 1.3945657
6.7625175 7.5954194 -1.6708142
0.57393193 0.64461994 -0.48494065
7.9968028 8.9817257 -1.6901183
0.61883855 0.69505751 -0.49482304
0.66077411 0.742158 -0.49912256
11.61976 13.050901 -1.6302537
0.70081097 0.787126 -0.49885118
11.534328 12.954947 -1.2129256
0.73991072 0.83104146 -0.49540526
11.557913 12.981438 -0.81055176
0.78540051 0.88213402 -0.49334142
11.568686 12.993536 -0.40391427
0.8498441 0.95451474 -0.49904996
11.589092 13.016458 0
2.3957405 2.6908107 -1.3113052
11.58863 13.015938 0.4046106
2.4392736 2.7397056 -1.239493
11.587139 13.014263 0.81260133
2.6927512 3.0244026 -1.2635847
2.9173539 3.2766683 -1.258009
2.9668624 3.3322747 -1.1679956
7.9269485 8.9032669 1.3940408
3.0113907 3.3822873 -1.073023
3.0336452 3.4072826 -0.96970016
5.6391492 6.3336926 1.3932639
3.0700133 3.4481299 -0.86984462
4.9363298 5.5443106 1.398639
6.7863441 7.5741382 -1.6708142
0.58293539 0.65060556 -0.49081874
8.0408382 8.9742603 -1.6934583
0.62691098 0.69968611 -0.49951777
0.66310227 0.74007863 -0.49912256
11.70854 13.067728 -1.6369419
0.70086765 0.78222799 -0.49713987
0.73885995 0.82463062 -0.4929648
0.77585274 0.8659178 -0.48563296
0.85408163 0.95322788 -0.49977744
11.615244 12.963601 0
2.396657 2.6748734 -1.307201
2.4440749 2.7277958 -1.2375722
11.681292 13.037316 0.81632799
2.7175274 3.0329921 -1.2707337
11.661508 13.015236 1.2219939
2.9212184 3.2603285 -1.2552526
2.9708607 3.3157337 -1.1654632
3.0155075 3.3655634 -1.0707173
3.0417233 3.3948224 -0.96886861
5.6432147 6.2983084 1.3893729
3.0860758 3.4443235 -0.87132585
4.9550338 5.5302396 1.3990093
6.7982235 7.5475483 -1.6688688
0.58580345 0.6503728 -0.4917984
8.0629778 8.9517088 -1.6931801
0.61574024 0.68360937 -0.48918942
0.66503733 0.7383402 -0.49912256
11.77336 13.071062 -1.6412148
0.70291293 0.78039056 -0.49713987
0.74223894 0.8240512 -0.49377832
0.78923285 0.87622494 -0.49257058
0.85782093 0.95237303 -0.50050491
11.691974 12.980705 0
2.397362 2.661608 -1.3037808
2.4537437 2.7242041 -1.2388527
2.7254579 3.0258677 -1.2707337
11.718238 13.009864 1.2243656
2.92331 3.2455277 -1.2524962
2.9704661 3.2978818 -1.1619177
3.0177956 3.3504279 -1.0684117
6.6340957 7.3653297 1.3931228
3.047981 3.3839407 -0.96803689
5.682137 6.3084426 1.3948849
3.0950818 3.436233 -0.87132585
4.9260869 5.469058 1.3867893
6.8391342 7.5451608 -1.6730839
0.58433092 0.64465338 -0.48885936
8.0937243 8.9292669 -1.6937368
0.62618667 0.69083005 -0.49576199
0.67455554 0.74419218 -0.50450873
11.786285 13.003024 -1.6373135
0.70778942 0.78085691 -0.49885118
14.753756 16.276836 -1.536177
0.74973255 0.82713002 -0.49703217
0.78950304 0.87100613 -0.49102885
0.86206007 0.95105344 -0.50123239
12.075212 13.321776 0
2.4031882 2.6512773 -1.3024126
2.4648356 2.7192888 -1.2401332
2.7400799 3.0229478 -1.2731167
11.813992 13.03359 1.2300856
2.9244545 3.2263558 -1.2486373
2.9782143 3.2856655 -1.1609046
3.0217721 3.3337197 -1.0661061
3.0533428 3.3685498 -0.96637362
5.7098813 6.2993317 1.3968304
3.1005833 3.4206669 -0.86984462
4.9643645 5.4768529 1.3927141
6.8694863 7.5362406 -1.6753535
0.59317672 0.65075058 -0.49473742
8.122633 8.9110184 -1.6945719
0.62930334 0.69038367 -0.49670097
0.67181545 0.73702198 -0.50091791
11.850725 13.00096 -1.6412148
0.7026608 0.77086127 -0.49371722
0.75080884 0.82368255 -0.49621871
0.78571647 0.86197829 -0.48717463
12.142779 13.321361 -0.41849065
0.86220282 0.94588846 -0.49977744
12.135273 13.313126 0
2.3941247 2.6264989 -1.2935201
2.4685915 2.7081935 -1.2382125
2.7497981 3.0166943 -1.2737124
11.862443 13.013814 1.2313412
2.9295685 3.2139132 -1.2469834
2.9782553 3.2673256 -1.1573591
3.0297599 3.3238292 -1.065645
3.0574672 3.3542256 -0.96471035
5.7247939 6.2804437 1.3961821
3.1048284 3.4061837 -0.86836338
4.9836135 5.4673243 1.3938251
6.8824749 7.5056477 -1.6730839
0.58803397 0.64127737 -0.48885936
8.1637554 8.9029408 -1.6976336
0.63254195 0.6898154 -0.49763989
0.67279088 0.73370862 -0.50002027
8.0993252 8.8326778 -1.1180474
0.70372272 0.76744115 -0.49286157
8.0890627 8.8214855 -0.83693814
0.75448376 0.82279837 -0.49703217
8.0905609 8.8231192 -0.55825585
0.79575354 0.86780494 -0.49179968
8.0958204 8.8288546 -0.27811176
0.86248672 0.94058043 -0.49832249
8.0696163 8.8002787 0
2.3841228 2.599993 -1.2839437
8.0741987 8.8052759 0.27736902
2.4778948 2.7022552 -1.2388527
8.0878611 8.8201742 0.55806953
2.7587347 3.0085239 -1.2737124
8.0634432 8.7935467 0.83428746
2.9299941 3.1952899 -1.2431246
8.0737543 8.8047915 1.1145175
2.9827042 3.2527726 -1.1553332
8.0539312 8.7831736 1.3935761
3.0317147 3.3062208 -1.0628783
6.7074237 7.3147464 1.3947929
3.0607932 3.3379321 -0.96263117
5.7340622 6.253252 1.3939123
3.1135905 3.39551 -0.86799306
4.9984818 5.4510684 1.3934548
6.907424 7.4907494 -1.6740565
0.59691471 0.64732361 -0.49473742
8.1724768 8.8626347 -1.6942935
0.63566315 0.68934429 -0.49857882
0.67847204 0.73576838 -0.50271332
8.0902147 8.7734261 -1.1134028
0.71321601 0.7734465 -0.49799553
8.0906763 8.7739267 -0.83456647
0.74810869 0.81128579 -0.4913379
8.0758953 8.7578974 -0.55555397
0.80568051 0.87371951 -0.49642479
8.0662289 8.7474146 -0.27625489
0.86889905 0.94227678 -0.50050491
8.0833168 8.7659454 0
2.3862791 2.5877981 -1.2812074
8.0662289 8.7474146 0.27625489
2.4892855 2.6995032 -1.2407734
8.0880842 8.7711163 0.55639249
2.7710092 3.0050185 -1.2754997
8.0568638 8.7372589 0.83107865
2.9336936 3.1814413 -1.2409195
8.0983133 8.7822084 1.1145175
2.9878421 3.2401626 -1.1538136
8.0743914 8.7562656 1.3928792
3.036979 3.2934489 -1.0614949
6.7211132 7.2887053 1.3934011
3.0634727 3.3221803 -0.96055216
5.7488284 6.2343116 1.3932639
3.1137352 3.3766873 -0.86540097
5.0190158 5.4428668 1.394936
6.9268942 7.464674 -1.6730839
0.60013133 0.64672339 -0.49571714
8.1692924 8.8035269 -1.6878915
0.63181967 0.6808719 -0.49388412
0.67713302 0.72970325 -0.50002027
8.0947075 8.7231531 -1.1102445
0.70949405 0.76457673 -0.49371722
8.1168413 8.7470045 -0.83442694
0.76556718 0.82500315 -0.50109959
8.0897779 8.7178402 -0.55462229
0.80339992 0.86577308 -0.49334142
8.0691872 8.6956501 -0.27541929
0.87438929 0.9422738 -0.50195986
8.0836058 8.7111883 0
0.91148144 0.98224568 -0.48772073
8.093668 8.7220325 0.27625489
2.4990423 2.6930592 -1.2414137
8.0952139 8.7236977 0.554995
2.7882273 3.0046957 -1.2790742
8.0869846 8.7148294 0.83135766
2.9371343 3.1651633 -1.238163
8.0825167 8.7100153 1.1085725
2.9861612 3.2179964 -1.149255
8.0815897 8.7090158 1.3893948
3.0353961 3.2710538 -1.0573449
3.0699017 3.3082383 -0.95930463
5.7750964 6.223455 1.3948849
3.1149688 3.3568041 -0.86280882
5.0401001 5.4313955 1.3960469
6.9625659 7.4638324 -1.6769748
0.59587544 0.63877517 -0.49081874
0.63239533 0.67792428 -0.49294519
0.68026006 0.72923505 -0.50091791
8.0876322 8.6698971 -1.1061573
0.71272624 0.76403862 -0.49457288
8.093441 8.6761236 -0.82968354
0.74902964 0.80295563 -0.48889744
8.0975819 8.680563 -0.55359751
0.81447554 0.87311327 -0.49873731
8.0660095 8.646718 -0.27453732
0.87049901 0.93317014 -0.49832249
8.0790968 8.6607475 0
0.90892172 0.9743591 -0.48498458
8.068737 8.649641 0.27463016
2.504791 2.685122 -1.2407734
8.1125717 8.6966324 0.55462229
2.8012929 3.0029707 -1.2814572
8.0798311 8.6615343 0.82828838
2.9414761 3.1532462 -1.2365092
8.071332 8.6524229 1.1039279
2.989296 3.2045088 -1.1472291
8.0826807 8.6645889 1.3856779
3.0359838 3.2545578 -1.0545782
6.7656813 7.2527728 1.393958
3.0678759 3.2887459 -0.95597804
5.8034844 6.2213035 1.3978032
3.114361 3.338578 -0.86021674
5.0610042 5.4253683 1.3978984
6.9779305 7.4359436 -1.6753535
0.60492712 0.64463294 -0.4966968
0.63561255 0.67733246 -0.49388412
0.68242097 0.72721326 -0.50091791
8.0915194 8.6226254 -1.1031847
0.71375328 0.76060218 -0.49371722
8.0973053 8.6287909 -0.82745129
0.75140899 0.80072945 -0.48889744
8.0904942 8.6215324 -0.5513615
0.81201142 0.86530966 -0.49565393
8.0779495 8.6081638 -0.27407309
0.86816484 0.92514884 -0.49541259
8.0910749 8.6221514 0
0.91566712 0.97576904 -0.48703668
8.0875263 8.6183701 0.27439803
2.5153406 2.6804409 -1.2420539
8.0904942 8.6215324 0.5513615
2.8128045 2.9974294 -1.2826487
8.0590792 8.5880556 0.82354492
2.944242 3.1374943 -1.2337528
8.0983334 8.6298866 1.1041137
2.986876 3.1829264 -1.1426705
8.0798092 8.6101465 1.3807995
3.0416327 3.2412772 -1.0531949
3.0709279 3.2724953 -0.95389897
5.8043637 6.1853466 1.3935881
3.1229091 3.3278885 -0.85984635
5.0515275 5.3830962 1.3908627
7.0243502 7.4410362 -1.6811899
0.60803419 0.64410293 -0.49767646
0.63883179 0.67672747 -0.49482304
0.68334895 0.72388542 -0.50002027
8.0897312 8.5696163 -1.0994691
0.7147662 0.75716633 -0.49286157
8.1050701 8.585865 -0.82563764
0.7600528 0.8051393 -0.4929648
8.0886126 8.5684309 -0.54949814
0.818376 0.86692226 -0.49796647
8.0732613 8.5521698 -0.27305183
0.86706966 0.91850442 -0.49323013
8.0671997 8.5457478 0
0.92758924 0.9826141 -0.49182495
8.0663986 8.544899 0.2728197
2.5284863 2.6784766 -1.2446148
8.100955 8.5815058 0.55033666
2.8151333 2.9821277 -1.2796699
8.090004 8.5699053 0.82410294
2.9469404 3.1217537 -1.2309965
8.0897312 8.5696163 1.0994691
2.9896672 3.1670148 -1.140138
8.069869 8.5485764 1.3747597
3.0405495 3.2209158 -1.0495058
3.0752535 3.2576783 -0.9522357
5.8321748 6.1781406 1.3958578
3.1300721 3.3157487 -0.85910583
5.0688276 5.3695116 1.391233
7.0083442 7.3800926 -1.672111
0.59673512 0.62838823 -0.4869
0.65178084 0.68635374 -0.50327355
0.68303233 0.7192629 -0.49822479
8.0602703 8.4878178 -1.0920377
0.71949911 0.75766402 -0.49457288
8.0769272 8.5053577 -0.82019663
0.76872903 0.80950528 -0.49703217
8.0919886 8.5212173 -0.54800749
0.81331962 0.85646111 -0.49334142
8.0862083 8.51513 -0.272634
0.86722529 0.91322619 -0.49177518
8.0828781 8.5116243 0
0.92920643 0.978495 -0.49114093
8.071063 8.4991817 0.2721234
2.5429456 2.6778331 -1.247816
8.1057453 8.5357037 0.54893917
2.8239689 2.9737625 -1.2796699
8.0728054 8.5010176 0.81977808
2.9495704 3.1060266 -1.2282401
8.0794687 8.5080338 1.0946387
2.9910562 3.149713 -1.137099
8.0774136 8.5058699 1.3717399
3.0447321 3.2062361 -1.0476614
6.8136077 7.1750269 1.3906177
3.0781693 3.241447 -0.95015651
5.8464026 6.1565175 1.3948849
3.1209481 3.2864947 -0.85392147
5.1036839 5.3744025 1.3964171
7.0520954 7.3847575 -1.6776233
0.6069169 0.63554645 -0.49375772
8.1768131 8.5625305 -1.6639537
0.64393818 0.67431414 -0.49576199
0.68874103 0.72123039 -0.50091791
8.0743132 8.4551964 -1.0907372
0.71786666 0.75172991 -0.49200591
8.1075354 8.4899855 -0.82089418
0.77351016 0.80999827 -0.49865916
8.0826368 8.463912 -0.54577148
0.8118844 0.85018265 -0.49102885
8.0781937 8.459259 -0.27156633
0.86977196 0.91080093 -0.49177518
8.0707016 8.4514132 0
0.91635954 0.95958614 -0.48293245
8.0588617 8.4390144 0.27091643
2.5491047 2.6693511 -1.2471757
8.0895357 8.4711361 0.54623735
2.8296244 2.9631038 -1.2784785
8.0841112 8.4654551 0.81852245
2.9489377 3.0880451 -1.2243812
8.0976934 8.4796791 1.0938956
2.9931583 3.134352 -1.1345664
8.0956469 8.4775352 1.3708106
3.0482972 3.1920917 -1.0458169
3.0777514 3.2229354 -0.94724578
5.8308592 6.1059132 1.3871033
3.1097524 3.2564461 -0.84836698
5.0969529 5.3373871 1.3904923
7.0849147 7.375185 -1.6802171
0.61846364 0.64380217 -0.5015952
8.2021847 8.5382299 -1.6639537
0.64960641 0.67622089 -0.49857882
0.69830686 0.72691661 -0.50630414
8.0869522 8.4182758 -1.0890652
0.7251035 0.75481111 -0.49542859
8.0801697 8.4112158 -0.81559271
0.76325268 0.7945233 -0.49052444
8.0911074 8.4226017 -0.54465348
0.81312507 0.84643894 -0.49025801
8.0824814 8.4136229 -0.27087
0.88150519 0.9176206 -0.49686751
8.073575 8.4043512 0
0.93482685 0.97312683 -0.49114093
8.0686302 8.3992033 0.27040577
2.5662026 2.6713405 -1.2516574
8.1007957 8.4326868 0.54530561
2.8410499 2.957448 -1.2796699
8.0801697 8.4112158 0.81559271
2.9514287 3.0723491 -1.2216249
8.0828133 8.4139671 1.0885078
2.995744 3.1184802 -1.1320339
8.078105 8.4090672 1.3636093
3.0510144 3.1760151 -1.0435113
3.0805247 3.2067344 -0.94516659
5.8817649 6.1227417 1.3948849
3.1030626 3.2301955 -0.84392327
5.099153 5.3080659 1.3867893
7.0945082 7.3440208 -1.6776233
0.6117785 0.63329458 -0.49473742
8.214982 8.5039015 -1.661727
0.64903802 0.67186457 -0.49670097
0.69164151 0.7159664 -0.50002027
8.071682 8.3555613 -1.0838631
0.72343999 0.74888325 -0.49286157
8.1105518 8.3957987 -0.81629026
0.76165962 0.78844702 -0.48808399
8.0979338 8.3827362 -0.54353547
0.80522734 0.83354706 -0.48409122
8.1031609 8.3881474 -0.27077714
0.87888604 0.9097963 -0.49395761
8.1178513 8.4033546 0
0.93623418 0.96916133 -0.49045685
8.0920477 8.3766432 0.27040577
2.5776 2.6682537 -1.2535781
8.1062622 8.3913584 0.54409444
2.8479691 2.9481316 -1.2790742
8.0814419 8.3656645 0.81336051
2.9506443 3.0544178 -1.2177659
8.0952034 8.3799095 1.0870215
2.9977171 3.1031463 -1.1295015
8.136055 8.4221983 1.3694168
3.0463483 3.1534877 -1.0389001
3.0799513 3.1882725 -0.94225585
5.8960934 6.1034579 1.3942366
3.1243584 3.2342415 -0.84725606
5.1180487 5.2980494 1.3879002
7.1176448 7.3243523 -1.6779474
0.61487019 0.63272697 -0.49571714
8.2871084 8.5277786 -1.6711907
0.63749129 0.65600502 -0.48637256
0.68878084 0.7087841 -0.49642941
8.1200333 8.3558512 -1.0870215
0.72565901 0.74673325 -0.49286157
8.1298676 8.3659716 -0.81573218
0.77418244 0.79666591 -0.4945918
8.129734 8.3658342 -0.54400128
0.81284177 0.83644795 -0.48717463
0.87898517 0.90451223 -0.49250266
8.1288128 8.3648853 0
0.94041568 0.96772683 -0.49114093
8.1363764 8.3726692 0.27105567
2.5881472 2.663311 -1.2548585
8.167326 8.4045181 0.54651678
2.8513825 2.934191 -1.2766912
8.146553 8.3831415 0.81740636
2.9543357 3.040134 -1.2155608
8.14779 8.3844137 1.0907372
3.0001705 3.0873001 -1.126969
8.1610107 8.3980188 1.3694168
3.0516233 3.1402473 -1.0375167
3.081218 3.1707013 -0.93976086
5.8880458 6.0590434 1.3880759
3.1298327 3.2207279 -0.84614509
5.1474447 5.2969346 1.3916032
7.1394525 7.3058562 -1.6782717
0.62150949 0.63599545 -0.49963585
8.369031 8.5640936 -1.6828814
0.64302361 0.65801096 -0.48918942
0.68076479 0.69663185 -0.4892478
8.1656065 8.3559284 -1.0899941
0.73784924 0.75504678 -0.49970689
8.1866674 8.3774796 -0.81908053
0.78023535 0.79842079 -0.49703217
8.1795979 8.370245 -0.54577148
0.82162392 0.840774 -0.49102885
0.8906225 0.91138083 -0.49759498
8.1759062 8.3664675 0
0.93917412 0.9610641 -0.4890888
8.1513433 8.3413324 0.27077714
2.5995483 2.6601377 -1.2567792
8.1907673 8.3816748 0.54651678
2.8555629 2.9221194 -1.274904
8.1796951 8.3703451 0.81838292
2.9560962 3.0249958 -1.2128044
8.1878757 8.3787165 1.0929667
2.9993155 3.0692225 -1.1234235
8.1830444 8.3737717 1.3691845
3.0495007 3.1205773 -1.0338278
6.9391255 7.1008601 1.3953495
3.083225 3.1550879 -0.93768179
5.9214969 6.0595136 1.3919668
6.1704855 6.3143048 -1.6634065
5.2102966 5.3317366 1.4045639
7.1623678 7.2833929 -1.6782717
0.62472689 0.63528311 -0.50061554
8.2528601 8.392312 -1.6542116
0.64508748 0.6559878 -0.48918942
0.68294984 0.6944899 -0.4892478
8.2378922 8.3770914 -1.0961249
0.73514754 0.74756956 -0.49628425
8.2269325 8.3659458 -0.82047564
0.78530186 0.79857141 -0.49865916
8.2366676 8.3758459 -0.54782116
0.83073092 0.84476805 -0.49488309
8.2770443 8.4169054 -0.27407309
0.88564354 0.9006086 -0.49323013
8.2301941 8.3692636 0
0.94087082 0.95676911 -0.48840478
8.2518091 8.391243 0.2732375
2.61852 2.6627662 -1.2619011
8.2478752 8.3872423 0.54856652
2.8633897 2.9117734 -1.2743083
8.2465172 8.3858624 0.82242888
2.9561484 3.0060997 -1.2089455
8.236496 8.3756714 1.0959392
2.9994459 3.0501287 -1.1198779
8.2385588 8.3777685 1.3740629
3.0524657 3.1040444 -1.0315222
3.0766611 3.1286485 -0.93269187
5.9488063 6.0493255 1.3939123
6.1668634 6.2710671 -1.6571114
5.1829214 5.2704992 1.3927141
7.1854529 7.266171 -1.6789203
0.62404633 0.63105655 -0.49865612
8.2275209 8.3199444 -1.6444695
0.63077486 0.63786066 -0.47698313
0.6873998 0.69512177 -0.49104321
8.2724543 8.3653822 -1.0976112
0.73723215 0.74551386 -0.49628425
8.2586784 8.3514519 -0.82131273
0.7849592 0.79377705 -0.49703217
8.283906 8.3769636 -0.54940498
0.83697945 0.84638172 -0.49719563
8.3412867 8.434989 -0.27541929
0.89732462 0.90740472 -0.49832249
8.3041582 8.3974438 0
0.94618171 0.95681065 -0.48977283
8.2794275 8.3724346 0.27337676
2.6192837 2.6487076 -1.2587
8.3063812 8.3996916 0.55089563
2.8661394 2.8983362 -1.2719252
8.2670956 8.3599644 0.82214975
2.9604754 2.993732 -1.2072916
8.3046589 8.3979492 1.1018842
2.9997885 3.0334866 -1.1168389
8.2842684 8.3773298 1.3777796
3.0556479 3.0899734 -1.0296777
3.077132 3.1116989 -0.93019694
5.937921 6.0046248 1.3874276
5.1851807 5.2434282 1.3893814
0.62110597 0.62414932 -0.49473742
8.1921473 8.2322874 -1.6322223
0.65145981 0.65465188 -0.49106726
0.69084072 0.69422579 -0.49194092
8.3099298 8.350647 -1.0990975
0.73191971 0.735506 -0.49115023
8.3214636 8.362237 -0.82494003
0.7848714 0.78871715 -0.49540526
8.2989073 8.33957 -0.54865968
0.83833253 0.84244019 -0.49642479
0.88571543 0.8900553 -0.49032021
8.31639 8.3571396 0
0.95183426 0.95649809 -0.49114093
8.3169699 8.3577223 0.27374813
2.6449664 2.6579263 -1.267023
8.3228626 8.3636436 0.5502435
2.8738832 2.887965 -1.2713295
8.3411655 8.3820362 0.82689321
2.9657972 2.9803293 -1.2056378
8.3478556 8.3887587 1.1041137
3.0011146 3.0158198 -1.1137998
8.3357668 8.3766108 1.3819611
3.0529852 3.0679443 -1.0255277
6.9697523 7.0039029 1.3886694
3.0841322 3.0992439 -0.92936534
5.9525781 5.9817448 1.3864547
5.212718 5.2382593 1.3923439
4.2953634 4.2953649 -0.99801397
0.62386233 0.62386256 -0.49571714
8.1968355 8.1968384 -1.6291604
0.66429573 0.66429597 -0.49951777
0.68748015 0.68748039 -0.48835009
8.3514328 8.3514357 -1.1018842
0.74521911 0.74521935 -0.49885118
8.3700886 8.3700914 -0.8277303
0.78292054 0.78292084 -0.4929648
8.3418646 8.3418674 -0.55015033
0.84430349 0.84430373 -0.49873731
8.3826122 8.3826151 -0.27523363
0.89579189 0.89579219 -0.49468505
8.3933563 8.3933592 0
0.94752419 0.94752455 -0.48772073
8.3826122 8.3826151 0.27523363
2.6554732 2.6554739 -1.2689438
8.395546 8.3955488 0.55369067
2.8809321 2.880933 -1.2713295
8.3898401 8.389843 0.82968354
2.9621964 2.9621973 -1.2012277
8.3739634 8.3739653 1.1048568
2.9988987 2.9988997 -1.1102544
8.3534031 8.353406 1.3814965
3.0590971 3.059098 -1.0250666
6.9924483 6.9924507 1.3897827
3.08478 3.0847809 -0.92728621
5.9867153 5.9867172 1.3909942
5.2310624 5.2310638 1.3938251
4.320035 4.2929792 -1.000608
0.6208719 0.61698347 -0.4917984
8.2478323 8.1961775 -1.6341707
0.68892598 0.68461132 -0.51641876
0.67822701 0.6739794 -0.48027077
8.2815762 8.2297106 -1.0892509
0.74499202 0.74032623 -0.49713987
8.2859573 8.2340631 -0.81684834
0.79056019 0.78560901 -0.49621871
8.2688313 8.2170448 -0.54362869
0.8469516 0.84164727 -0.49873731
8.2713318 8.2195301 -0.27073073
0.8959586 0.89034736 -0.49323013
8.4466362 8.3937368 0
0.95316219 0.94719267 -0.4890888
8.4443607 8.3914747 0.27639419
2.6678338 2.6511257 -1.2708645
8.4502201 8.3972979 0.55555397
2.8818429 2.8637943 -1.2677549
8.4034176 8.3507881 0.82842785
2.967396 2.9488115 -1.1995739
8.4426031 8.3897276 1.1104302
3.0055597 2.9867363 -1.1092414
8.3753757 8.3229218 1.3807995
3.0562677 3.0371268 -1.0209165
7.0031409 6.9592814 1.387556
3.0791912 3.0599067 -0.92271215
5.9872942 5.9497967 1.3867791
5.2474694 5.2146053 1.3938251
4.2927022 4.2420554 -0.99152911
0.62507308 0.61769825 -0.49375772
8.2608299 8.1633654 -1.6322223
0.66571403 0.65785974 -0.49763989
0.68773407 0.67961997 -0.48565698
8.3016949 8.2037497 -1.0888793
0.7419135 0.73316014 -0.49371722
8.3117599 8.2136946 -0.81712735
0.79535043 0.78596663 -0.49784568
8.296011 8.1981316 -0.54390812
0.84798628 0.83798146 -0.49796647
8.2971001 8.1992083 -0.27082357
0.89976686 0.8891511 -0.49395761
8.4942293 8.3940125 0
0.95446712 0.94320601 -0.48840478
8.499053 8.398778 0.27741545
2.6806188 2.6489918 -1.2734253
8.5034819 8.4031553 0.5575105
2.8857555 2.8517087 -1.2659677
8.4536715 8.3539324 0.83107865
2.9646804 2.929702 -1.1951637
8.5042448 8.4039087 1.1154464
3.004256 2.9688108 -1.1056958
8.4000006 8.3008947 1.3810319
3.0592012 3.0231078 -1.0190721
7.0591779 6.9758911 1.3947929
3.0863338 3.0499203 -0.92229635
6.0165215 5.9455366 1.3896972
5.2508287 5.1888781 1.3908627
4.291863 4.2176032 -0.98861104
0.63798827 0.62694949 -0.50257486
8.2948933 8.151372 -1.634449
0.65747219 0.64609635 -0.49012834
0.68707973 0.67519152 -0.4838616
8.3302517 8.1861181 -1.0896225
0.7504046 0.7374208 -0.49799553
8.3175869 8.1736717 -0.81545317
0.79754204 0.78374261 -0.49784568
8.3259954 8.1819363 -0.54437399
0.85295546 0.83819729 -0.49950814
8.3142586 8.1704016 -0.2706379
0.90756136 0.89185834 -0.49686751
8.5304747 8.3828764 0
0.95039487 0.93395072 -0.48498458
8.5324545 8.3848228 0.27774039
2.6907079 2.6441522 -1.2747058
2.8882606 2.8382866 -1.2635847
2.9646223 2.913327 -1.191856
3.0070145 2.9549859 -1.1036698
3.0579145 3.0050051 -1.0158442
7.0320129 6.9103417 1.3856075
3.0822802 3.0289493 -0.91855395
6.0288773 5.9245629 1.3887243
4.26719 4.193357 -1.1272061
5.270905 5.1797056 1.3923439
4.2853246 4.1847939 -0.98407161
0.62997508 0.61519629 -0.49473742
8.3232965 8.1280375 -1.6350057
0.66455257 0.64896262 -0.49388412
0.69559097 0.67927283 -0.48835009
8.3559303 8.1599064 -1.0896225
0.75271779 0.7350595 -0.49799553
8.3532181 8.1572571 -0.81642979
0.80261487 0.78378606 -0.49947262
8.3345089 8.1389866 -0.54325598
0.85822546 0.83809209 -0.50104988
8.3713598 8.1749725 -0.27165917
0.90102887 0.87989134 -0.49177518
0.96677053 0.94409072 -0.49182495
2.7030692 2.639657 -1.2766265
2.8862364 2.8185272 -1.2588187
13.340597 13.027636 1.3038881
2.9668832 2.8972821 -1.1890996
3.0052097 2.9347095 -1.0996177
3.0589867 2.9872248 -1.0130775
7.0636082 6.8979006 1.387556
3.0889821 3.0165167 -0.91772223
6.023458 5.8821521 1.3832123
4.2409716 4.1414809 -1.1168375
5.2899652 5.1658659 1.3930844
4.2509923 4.126698 -0.97337162
0.6342997 0.61575353 -0.4966968
4.241899 4.1178708 -0.83086348
0.65887266 0.63960803 -0.48825046
0.6937561 0.67347151 -0.48565698
8.3758173 8.1309185 -1.0890652
0.75100416 0.72904569 -0.49542859
8.3845406 8.1393862 -0.81712735
0.80231482 0.7788561 -0.49784568
8.3657875 8.1211815 -0.5437218
0.85143906 0.82654399 -0.49565393
8.3754921 8.1306019 -0.27100927
0.90630883 0.87980944 -0.49323013
0.96282482 0.93467295 -0.48840478
2.7095294 2.630306 -1.2759863
13.357163 12.966616 0.86812884
2.8945861 2.8099518 -1.2588187
13.314771 12.925463 1.2976099
2.9658098 2.8790929 -1.1852407
3.0041857 2.9163468 -1.0960722
3.0580614 2.9686472 -1.0098497
7.0542002 6.8479438 1.3817106
3.0782666 2.9882617 -0.91190076
6.0706205 5.8931231 1.3900214
4.285675 4.160367 -1.1253544
5.2996273 5.1446724 1.3916032
4.3029804 4.1524401 -0.98245043
0.63737845 0.6150797 -0.49767646
4.3011279 4.1506524 -0.84004891
0.67728662 0.65359163 -0.50045675
0.69446516 0.67016917 -0.48475927
8.384141 8.0908213 -1.0870215
0.75446463 0.72806954 -0.49628425
8.3885527 8.0950785 -0.81517416
0.80199254 0.77393472 -0.49621871
8.3840942 8.0907755 -0.54334915
0.85787147 0.82785875 -0.49796647
8.3736792 8.0807247 -0.27017367
0.90623403 0.8745293 -0.49177518
0.9628889 0.92920208 -0.48703668
2.7309554 2.6354125 -1.2823886
13.361073 12.893634 0.86589283
2.8987885 2.797374 -1.2570316
13.341574 12.874817 1.2964938
2.9660382 2.8622711 -1.181933
3.001687 2.8966727 -1.0920203
3.0598538 2.9528043 -1.0075442
7.1200914 6.8709941 1.3906177
3.0800807 2.9723237 -0.90982169
6.0610957 5.8490477 1.3838608
4.293757 4.1435394 -1.1242436
5.2950678 5.1098189 1.3864189
4.3045931 4.1308413 -0.98018074
0.64160991 0.61571175 -0.49963585
4.3027005 4.129025 -0.83810049
0.67783517 0.65047485 -0.49951777
0.69375515 0.66575217 -0.48296389
8.4167624 8.0770254 -1.088322
0.75779933 0.7272113 -0.49713987
8.4140072 8.0743818 -0.81545317
0.81074232 0.77801722 -0.5002861
8.4052162 8.0659456 -0.54325598
0.8601802 0.8254596 -0.49796647
8.40487 8.0656137 -0.2704522
0.90867293 0.87199497 -0.49177518
0.96683627 0.92781061 -0.48772073
2.7437737 2.633023 -1.2849497
13.365317 12.825836 0.86384314
2.8997018 2.7826574 -1.2540528
13.353007 12.814023 1.2941221
2.968472 2.8486516 -1.1797279
3.0027852 2.8815799 -1.0894877
3.0610673 2.9375095 -1.0052384
7.103528 6.8167992 1.3836591
3.0883701 2.9637101 -0.90982169
6.0546246 5.8102341 1.3786731
3.6671731 3.5191503 -0.95760673
5.3008094 5.0868459 1.3841971
4.3360991 4.1378798 -0.98472011
0.63828099 0.60910273 -0.49571714
4.3228102 4.1251979 -0.83977056
0.68092644 0.64979869 -0.50045675
0.69173253 0.66011077 -0.48027077
8.4349623 8.0493679 -1.0877647
0.75982702 0.72509241 -0.49713987
8.4394073 8.0536098 -0.81573218
0.81291163 0.77575034 -0.5002861
8.4277067 8.0424433 -0.54325598
0.85447115 0.81541002 -0.49334142
8.4418249 8.0559168 -0.27091643
0.91245198 0.87074029 -0.49250266
0.97078288 0.92640465 -0.48840478
2.7483737 2.622735 -1.2836691
13.370727 12.7595 0.86188662
2.9019361 2.7692776 -1.2516698
13.356983 12.746385 1.2910528
2.9694607 2.8337152 -1.1769716
3.0038216 2.8665054 -1.0869552
3.0579948 2.9182022 -1.0015496
7.1225352 6.796937 1.3836591
3.0768194 2.9361663 -0.9040001
6.0979528 5.8191919 1.3848336
3.6343293 3.4681902 -0.94649762
5.3391647 5.0950909 1.3904923
4.3605232 4.1379805 -0.98763829
0.6399796 0.60731775 -0.49571714
4.3443708 4.1226521 -0.84171897
0.67889577 0.64424777 -0.49763989
0.70783377 0.67170888 -0.49014547
8.4501867 8.0189247 -1.0868357
0.76316035 0.72421181 -0.49799553
8.4575262 8.0258894 -0.8153137
0.81109905 0.76970392 -0.49784568
8.4501352 8.0188751 -0.54325598
0.86076111 0.81683147 -0.49565393
8.4541388 8.0226746 -0.27059147
0.9121775 0.86562377 -0.49104768
0.97200316 0.92239618 -0.48772073
2.7625597 2.6215701 -1.2868702
13.39037 12.706982 0.86086184
2.8999646 2.7519624 -1.2474995
13.333194 12.652723 1.2853328
2.9676013 2.8161473 -1.1731126
3.0062015 2.8527775 -1.0849292
3.0548396 2.8989332 -0.99786055
7.1343069 6.7702017 1.3822674
3.0850077 2.9275618 -0.9040001
6.0841174 5.7736096 1.3780245
3.6411498 3.4553206 -0.94575697
5.3348403 5.062572 1.3856783
4.3756495 4.1277351 -0.98828673
0.64685166 0.61020255 -0.49963585
4.3695469 4.1219783 -0.8442241
0.67566574 0.63738406 -0.49388412
0.7306239 0.68922842 -0.50450873
8.4797306 7.9992886 -1.0875789
0.7626754 0.71946394 -0.49628425
8.4812965 8.0007658 -0.8153137
0.80806249 0.76227951 -0.4945918
8.4608049 7.9814353 -0.54241747
0.86586523 0.81680727 -0.49719563
8.483717 8.0030489 -0.27077714
0.91609651 0.86419261 -0.49177518
0.97746915 0.92208803 -0.4890888
2.7648108 2.6081631 -1.2843093
13.350982 12.594545 0.85592395
2.9053373 2.7407277 -1.246308
13.34019 12.584365 1.282403
2.9703481 2.8020551 -1.1709075
3.0062063 2.8358815 -1.0818902
3.0605943 2.887188 -0.99693841
7.1846128 6.7775488 1.3881127
3.0879862 2.913028 -0.90233684
6.1442852 5.796164 1.3877517
3.6099229 3.4053929 -0.93501812
5.351264 5.0480738 1.3860487
4.3900394 4.1181993 -0.98893523
0.63202161 0.59288549 -0.4869
4.3868194 4.1151786 -0.84533751
0.68388271 0.64153528 -0.49857882
0.73515284 0.68963069 -0.50630414
8.4889679 7.9633131 -1.0859069
0.77259225 0.72475171 -0.50141817
8.5079737 7.981142 -0.81573218
0.7955302 0.74626935 -0.48564357
8.4888906 7.9632416 -0.54279011
0.86410517 0.81059796 -0.49488309
8.489995 7.9642768 -0.27026653
0.91578895 0.85908139 -0.49032021
0.98004061 0.91935444 -0.4890888
2.780376 2.6082091 -1.2881508
13.352592 12.525773 0.85378116
2.9074106 2.7273779 -1.243925
13.354913 12.527949 1.2804499
2.9669454 2.783226 -1.1664973
3.0042369 2.8182085 -1.0783447
3.0572908 2.8679769 -0.99324936
7.2035131 6.7574568 1.3881127
3.0789881 2.8883309 -0.89734691
6.1388588 5.758728 1.3828882
3.6265867 3.4020209 -0.93686968
5.3381066 5.0075598 1.3790129
4.4137874 4.115922 -0.99152911
0.63632852 0.59338576 -0.48885936
4.4163938 4.1183524 -0.84867769
0.68061745 0.63468581 -0.49482304
0.70321184 0.65575546 -0.48296389
8.5067348 7.9326558 -1.0851636
0.77209532 0.71999031 -0.49970689
8.5155687 7.9408937 -0.8141976
0.80976743 0.7551201 -0.4929648
8.5110235 7.936655 -0.54269695
0.86920619 0.81054765 -0.49642479
8.5135908 7.9390492 -0.27026653
0.92242169 0.86017185 -0.49250266
0.98413885 0.91772401 -0.48977283
2.7894888 2.6012394 -1.2887909
13.344407 12.443857 0.85089296
2.9085097 2.7122283 -1.2409463
13.332205 12.432478 1.2747297
2.9737847 2.7730982 -1.165946
3.0069263 2.8040032 -1.0763186
3.0572479 2.8509288 -0.99048263
7.2003579 6.7144403 1.3836591
3.0760999 2.8685086 -0.89402038
6.2049942 5.7862492 1.3939123
3.6151044 3.3711383 -0.93131512
5.3960648 5.0319099 1.3901221
4.4361086 4.1122026 -0.99379879
0.63297105 0.58675414 -0.48494065
4.4140654 4.0917692 -0.84589416
0.68249714 0.63266408 -0.49482304
0.70384318 0.65245152 -0.48206615
8.540451 7.9168634 -1.0864642
0.7782048 0.72138357 -0.50227386
8.5537176 7.9291615 -0.81559271
0.81468374 0.75519896 -0.4945918
8.5315981 7.9086566 -0.54251063
0.87702036 0.81298399 -0.49950814
8.522439 7.900166 -0.2698023
0.93589938 0.86756396 -0.49832249
1.0006397 0.9275772 -0.49661323
2.8347111 2.6277325 -1.3060774
13.343166 12.368905 0.84847063
2.9109416 2.6983969 -1.2385632
13.366098 12.390162 1.2744508
2.9678984 2.751195 -1.1604333
3.0052981 2.7858639 -1.0727731
3.0542736 2.8312633 -0.98679376
3.0788565 2.8540514 -0.89235705
6.17871 5.7275667 1.3841851
3.6149991 3.351047 -0.92872298
5.3720498 4.9798055 1.3801239
4.4736958 4.1238742 -0.99963522
0.64101738 0.59089291 -0.48983902
4.4400387 4.0928493 -0.84867769
0.66997892 0.61758983 -0.48449469
0.70303452 0.64806062 -0.48027077
8.5669203 7.8970289 -1.0870215
0.77091241 0.71063077 -0.49628425
8.5655603 7.8957748 -0.81461608
0.81544632 0.75168234 -0.49377832
8.5595284 7.890214 -0.54288328
0.87521672 0.80677897 -0.49719563
8.5518198 7.8831091 -0.2700344
0.92462063 0.85231978 -0.49104768
1.0115176 0.9324218 -0.50071752
13.340937 12.29774 0.84614146
2.910044 2.6824925 -1.2349888
13.336104 12.293285 1.2683122
2.9699163 2.7376831 -1.1582283
3.0073764 2.7722142 -1.0707471
3.0578761 2.8187649 -0.98541039
7.1864843 6.624536 1.3736386
3.0810618 2.8401377 -0.89069378
6.1946821 5.710288 1.3841851
3.6127827 3.3302805 -0.92576051
5.4090586 4.9860964 1.3860487
7.5866203 6.9518557 -1.6905929
0.64533907 0.59134424 -0.4917984
8.6809158 7.9545927 -1.6547682
0.69524378 0.63707346 -0.5013957
0.70758975 0.64838648 -0.48206615
8.5712299 7.854084 -1.0846063
0.77568328 0.71078265 -0.49799553
8.5742435 7.8568454 -0.81322098
0.8095907 0.74185312 -0.48889744
8.5740662 7.8566828 -0.5423243
0.87760687 0.80417842 -0.49719563
8.5678034 7.8509445 -0.2698023
0.93401343 0.85586548 -0.49468505
1.0156655 0.93068588 -0.50140154
13.331708 12.216257 0.84325331
2.9109528 2.6673965 -1.23201
13.343103 12.2267 1.2655219
2.9681048 2.7197666 -1.1543694
3.0027511 2.751514 -1.0661886
3.0533133 2.7978458 -0.9812603
3.085149 2.8270178 -0.88944632
6.2421556 5.7198811 1.3909942
3.6255472 3.3222015 -0.92650115
5.4238305 4.9700241 1.3860487
7.5969992 6.920013 -1.6883231
0.64966869 0.59177524 -0.49375772
8.7308331 7.9528089 -1.6597786
0.68668693 0.62549472 -0.49388412
0.73593533 0.67035443 -0.50002027
8.6106882 7.8433704 -1.08665
0.77778864 0.70847815 -0.49799553
8.5916157 7.8259974 -0.8126629
0.80638528 0.7345264 -0.48564357
8.5884762 7.8231368 -0.54176527
0.87726027 0.79908556 -0.49565393
8.5925379 7.8268366 -0.2698487
0.93517131 0.85183609 -0.49395761
1.1739744 1.0693588 0
1.0156436 0.92513722 -0.50003344
1.1928742 1.0865744 0.037462227
13.332446 12.144361 0.84101725
2.9075625 2.648463 -1.227244
1.1666898 1.0627234 0.11035474
2.9676332 2.7031806 -1.1510617
3.0094709 2.7412901 -1.0656821
3.0515299 2.7796011 -0.97803247
1.1918327 1.0856256 0.22657382
3.0877378 2.8125825 -0.88778293
6.2386723 5.6827302 1.3864547
3.6339347 3.3101065 -0.92613083
1.19436 1.0879278 0.30439007
7.6730881 6.9477801 -1.7006444
0.64237404 0.58165288 -0.4869
8.8101778 7.9773855 -1.6703557
0.68853968 0.62345463 -0.49388412
0.75116909 0.68016392 -0.50899726
1.1233397 1.0171546 -0.14138153
0.78256726 0.70859414 -0.49970689
8.6355009 7.8192201 -0.81461608
1.1210693 1.0150989 -0.070527315
0.88373119 0.8001954 -0.49796647
1.1264317 1.0199544 -0.03528041
0.94874239 0.85906142 -0.49977744
1.1148748 1.00949 0
1.0114181 0.91581255 -0.49661323
13.392113 12.126207 0.8425079
1.103892 0.99954528 -0.46468464
1.1180749 1.0123875 0.10547179
1.1101646 1.0052251 -0.42944303
1.1454817 1.0372037 0.14416829
1.1043464 0.99995679 -0.39000723
1.1323617 1.0253239 0.17863978
3.0612059 2.7718418 -0.97849369
1.1054931 1.000995 0.2095947
3.100419 2.8073483 -0.88903046
