# .PCD v0.7 - Point Cloud Data file format
VERSION 0.7
FIELDS x y z
SIZE 4 4 4
TYPE F F F
COUNT 1 1 1
WIDTH 1486
HEIGHT 1
VIEWPOINT 0 0 0 1 0 0 0
POINTS 1486
DATA ascii
3.8988373 -0.70291662 0.18474989
3.9156651 -0.7059505 -1.241542
3.8817861 -0.69984245 0.2758171
3.8956692 -0.70234543 -1.1350746
6.1732349 -1.112965 0.5852192
3.9015069 -0.70339787 -1.0378244
3.8955963 -0.70233226 -0.93791521
6.1825848 -1.1146506 0.88291425
3.9024947 -0.70357597 -0.84287411
6.1860003 -1.1152663 1.0327078
3.9148936 -0.70581138 -0.74949574
6.183753 -1.1148612 1.1838626
2.9120803 -0.53341609 -1.7557391
3.9019001 -0.71472484 -0.65172452
3.0185595 -0.55292022 -1.7242335
3.9098842 -0.71618736 -0.5586409
3.2030194 -0.58670837 -1.7314112
3.9039996 -0.71510941 -0.46413824
3.3735337 -0.61794209 -1.7226909
3.9038146 -0.71507555 -0.3702673
3.5918286 -0.65792793 -1.728438
3.9033663 -0.71499342 -0.27749124
3.8118389 -0.69822806 -1.7253768
3.9066849 -0.71560127 -0.18521571
3.8810639 -0.71090817 -1.6480685
3.9039769 -0.71510524 -0.092146866
3.9032521 -0.7149725 -1.5495282
3.8951926 -0.71349621 0
3.9098482 -0.71618074 -1.4467452
3.9082782 -0.71589315 -1.3425707
3.8948941 -0.71344155 0.18465672
3.9193122 -0.71791434 -1.2433293
3.8876665 -0.71211761 0.27637514
3.9012573 -0.71460712 -1.1372799
6.1505151 -1.1266116 0.58336139
3.9090433 -0.71603328 -1.040357
3.9031911 -0.71496129 -0.94022071
6.1658115 -1.1294135 0.88096583
3.8985901 -0.71411854 -0.84245819
6.1595664 -1.1282697 1.0288168
3.9129074 -0.71674109 -0.74949574
6.1516161 -1.1268133 1.178308
2.8615341 -0.53242064 -1.7261536
3.9037695 -0.72634023 -0.65237302
3.0255744 -0.56294215 -1.7291318
3.9078691 -0.72710299 -0.5586409
3.2169931 -0.59855777 -1.7398617
3.9039402 -0.726372 -0.46437052
3.3559811 -0.62441808 -1.7146115
3.8998444 -0.72560996 -0.37008151
3.5775368 -0.66564095 -1.7224485
3.9092004 -0.72735071 -0.27804932
3.8062818 -0.70820159 -1.72375
3.9046712 -0.72650802 -0.18521571
3.880878 -0.72208101 -1.6488395
3.9019647 -0.72600442 -0.092146866
3.9085667 -0.72723281 -1.5524381
3.9030161 -0.72620004 0
3.9041378 -0.72640878 -1.4453771
3.9099896 -0.72749758 -1.3438512
3.8948507 -0.72468078 0.18474989
3.9135382 -0.72815782 -1.2421377
3.8837013 -0.72260636 0.27623564
3.9011364 -0.72585034 -1.1378311
6.1297255 -1.1405044 0.58168936
3.9051263 -0.72659272 -1.0398505
3.9011791 -0.72585827 -0.94022071
6.1412148 -1.142642 0.87790394
3.8985043 -0.72536057 -0.84287411
6.1311688 -1.1407729 1.0246017
3.9186196 -0.72910327 -0.75097698
6.132988 -1.1411114 1.1753457
2.8853915 -0.54520041 -1.7414565
3.9036651 -0.73760521 -0.65269721
3.0274172 -0.57203645 -1.7310911
3.901931 -0.73727757 -0.55808419
3.211839 -0.60688329 -1.7379838
3.9018965 -0.73727101 -0.46437052
3.3507123 -0.6331237 -1.7128161
3.8938899 -0.73575813 -0.36970994
3.5934269 -0.67898512 -1.7310051
3.9091146 -0.73863488 -0.27818882
3.7953126 -0.71713179 -1.7196826
3.9065537 -0.73815101 -0.18540207
3.8788464 -0.73291564 -1.6488395
3.9058158 -0.7380116 -0.092286125
3.9083509 -0.73849064 -1.5531656
3.8950772 -0.73598254 0
3.9150212 -0.73975098 -1.4501654
3.913528 -0.73946881 -1.3457717
3.8928118 -0.73555446 0.18474989
3.9208698 -0.74085605 -1.2451166
3.8836286 -0.73381925 0.27637514
3.9028726 -0.73745543 -1.1389335
6.1069493 -1.1539201 0.57983148
3.9049833 -0.7378543 -1.040357
3.9010496 -0.73711103 -0.94068193
6.1146469 -1.1553745 0.87456387
3.9099193 -0.73878694 -0.84578484
6.1105065 -1.1545923 1.0216836
3.9184995 -0.74040818 -0.75134724
6.1085329 -1.1542194 1.1712722
2.8499734 -0.54727095 -1.7210528
3.8995214 -0.7488122 -0.65237302
3.012008 -0.57838595 -1.7232537
3.907506 -0.75034547 -0.55919755
3.2048216 -0.61541128 -1.735167
3.905544 -0.74996877 -0.46506742
3.3540845 -0.64407378 -1.7155093
3.9053788 -0.749937 -0.37101042
3.5754192 -0.68657595 -1.7233043
3.9147432 -0.75173521 -0.27874687
3.8093169 -0.73149055 -1.7270039
3.9043462 -0.74973875 -0.18540207
3.882092 -0.74546528 -1.651152
3.9114635 -0.75110543 -0.092471816
3.909802 -0.75078636 -1.5546206
3.8948405 -0.74791336 0
3.9146545 -0.75171816 -1.4508494
3.9113166 -0.75107723 -1.3457717
3.8925743 -0.74747819 0.18484305
3.9149041 -0.75176615 -1.243925
3.8912308 -0.74722022 0.2770727
3.9025555 -0.74939483 -1.1394849
6.0761204 -1.1667773 0.57723051
3.9122772 -0.75126165 -1.0428894
3.9122238 -0.7512514 -0.94390976
6.091742 -1.1697772 0.8717804
3.9019463 -0.74927789 -0.84453738
6.0876722 -1.1689956 1.0184411
3.9047043 -0.74980748 -0.74912542
6.0896406 -1.1693735 1.1683098
2.868598 -0.5596776 -1.7332951
3.9127786 -0.76340234 -0.65496689
3.0273921 -0.59065914 -1.7330505
3.9013751 -0.76117748 -0.5586409
3.1752501 -0.6195069 -1.720144
3.8955033 -0.76003188 -0.46413824
3.3574209 -0.65504932 -1.7182024
3.8894551 -0.75885183 -0.36970994
3.5733664 -0.6971814 -1.7233043
3.910537 -0.76296502 -0.27860737
3.8394086 -0.74908751 -1.7416463
3.9079874 -0.76246756 -0.18568157
3.8852971 -0.75804061 -1.6534646
3.9013677 -0.76117605 -0.092286125
3.9093857 -0.76274037 -1.555348
3.9024191 -0.76138115 0
3.906873 -0.76225013 -1.4487972
3.9127905 -0.76340467 -1.3470522
3.8981826 -0.76055461 0.18521571
3.9164045 -0.76410979 -1.2451166
3.8889966 -0.75876242 0.2770727
3.9022017 -0.76133877 -1.1400361
6.0530863 -1.180987 0.5753727
3.9043336 -0.76175475 -1.0413699
3.9004266 -0.76099247 -0.94160408
6.0610294 -1.1825367 0.8678835
3.8939457 -0.75972795 -0.84328991
6.0589957 -1.18214 1.0142261
3.9198239 -0.76477695 -0.75245816
6.0629954 -1.1829203 1.1638662
2.8855863 -0.57136148 -1.744517
3.9009519 -0.77240926 -0.65334576
3.0017853 -0.59436947 -1.7193351
3.9108911 -0.77437729 -0.5603109
3.1804368 -0.62974346 -1.7238997
3.9031088 -0.77283633 -0.4652997
3.3731108 -0.66789389 -1.7271794
3.9029486 -0.77280462 -0.37119621
3.573179 -0.7075085 -1.7241598
3.9142625 -0.77504486 -0.27902588
3.8193791 -0.75625741 -1.7335116
3.905843 -0.77337772 -0.18568157
3.8759234 -0.76745349 -1.6503811
3.8992271 -0.77206773 -0.092286125
3.9090683 -0.77401638 -1.5560756
3.8983161 -0.77188736 0
3.9121041 -0.77461749 -1.4515336
3.9106436 -0.77432829 -1.3470522
3.8960438 -0.77143741 0.18521571
3.9161282 -0.77541429 -1.2457123
3.8849061 -0.76923209 0.27693319
3.9019463 -0.77260619 -1.1405874
6.0282779 -1.1936312 0.57332909
3.9097836 -0.774158 -1.043396
3.9078321 -0.77377158 -0.94390976
6.0402188 -1.1959955 0.86537844
3.8956475 -0.77135897 -0.84412158
6.0363116 -1.1952219 1.0109836
3.9061053 -0.77342963 -0.75023633
6.0403891 -1.1960292 1.160163
2.8720729 -0.57754672 -1.7373757
3.9044473 -0.78514743 -0.65431845
3.0205212 -0.60739821 -1.7310911
3.9066343 -0.78558725 -0.56003261
3.1785543 -0.6391772 -1.7238997
3.9066405 -0.7855885 -0.46599662
3.3623533 -0.67613751 -1.7226909
3.9025903 -0.78477401 -0.371382
3.5781527 -0.71953267 -1.7275825
3.9158578 -0.78744197 -0.27930492
3.8135362 -0.76686609 -1.7318847
3.9054894 -0.785357 -0.18577473
3.8790569 -0.78004169 -1.6526936
3.9067204 -0.78560454 -0.09251824
3.9085808 -0.78597862 -1.5568031
3.9058123 -0.78542191 0
3.9116306 -0.78659195 -1.4522176
3.912044 -0.78667504 -1.3483328
3.8956962 -0.78338766 0.18530889
3.9175537 -0.78778303 -1.2469038
3.884562 -0.78114873 0.2770727
3.9034064 -0.7849381 -1.14169
6.0071387 -1.2079788 0.571657
3.9036753 -0.78499222 -1.042383
3.9036107 -0.78497922 -0.94344854
6.0191684 -1.2103978 0.86287332
3.9029307 -0.78484249 -0.84620064
6.0114555 -1.2088468 1.007417
3.9095736 -0.78617829 -0.75134724
6.0098376 -1.2085215 1.1549789
2.8550756 -0.58346689 -1.7281941
3.9116292 -0.79938549 -0.65593964
3.00664 -0.61444074 -1.7242335
3.9041471 -0.79785639 -0.56003261
3.1851811 -0.6509276 -1.7285944
3.9002614 -0.79706234 -0.46553203
3.3584614 -0.68633944 -1.7217932
3.8962035 -0.79623306 -0.37101042
3.5705612 -0.72968435 -1.7250154
3.9133646 -0.79974014 -0.27930492
3.8272188 -0.78213525 -1.7392058
3.9049604 -0.79802263 -0.18586789
3.8802037 -0.79296333 -1.6542354
3.9061918 -0.79827428 -0.092564657
3.9060922 -0.79825395 -1.5568031
3.8974471 -0.79648715 0
3.9165053 -0.80038196 -1.4549537
3.9151225 -0.80009937 -1.3502535
3.8990881 -0.79682261 0.18558839
3.9225416 -0.80161554 -1.2492868
3.8859982 -0.79414749 0.27735174
3.9046886 -0.79796708 -1.1427926
5.9857545 -1.2232563 0.56998497
3.9106684 -0.79918915 -1.0449156
3.9087524 -0.79879761 -0.94529313
5.9959316 -1.2253362 0.86008984
3.8966124 -0.79631662 -0.84536898
5.9863591 -1.22338 1.0038503
3.9186382 -0.80081785 -0.75356907
5.9906058 -1.2242478 1.1520164
2.8907015 -0.59810936 -1.7506381
3.9038665 -0.80774128 -0.65496689
2.9948847 -0.61966568 -1.7183553
3.9080043 -0.80859745 -0.56086767
3.1714761 -0.65620387 -1.7220218
3.9119186 -0.80940741 -0.46715814
3.3795264 -0.69925117 -1.7334633
3.9000964 -0.80696124 -0.37156776
3.5616868 -0.73694158 -1.7215928
3.9211676 -0.81132102 -0.2800025
3.8109827 -0.78852296 -1.7326982
3.9069114 -0.80837137 -0.18605423
3.8890979 -0.80468559 -1.6588604
3.9081457 -0.80862671 -0.092657499
3.9096031 -0.80892825 -1.5589855
3.8974478 -0.80641323 0
3.9163783 -0.81033009 -1.4556377
3.9131558 -0.80966336 -1.3502535
3.8971295 -0.80634737 0.18558839
3.9205713 -0.81119764 -1.2492868
3.8860002 -0.8040446 0.27749124
3.908375 -0.80867416 -1.1444464
5.961298 -1.2334404 0.56794137
3.9143875 -0.80991817 -1.0464349
3.9163177 -0.81031758 -0.94759864
5.9696465 -1.2351677 0.85674965
3.9080656 -0.80861014 -0.84827983
5.964026 -1.2340049 1.000608
3.9089713 -0.80879754 -0.75208789
5.9664259 -1.2345014 1.147943
2.8635566 -0.60188019 -1.7353354
3.9128978 -0.82243729 -0.65691239
2.9792726 -0.62620211 -1.7105179
3.9054449 -0.82087082 -0.56086767
3.1832242 -0.66906995 -1.7295334
3.9132445 -0.82251018 -0.46762273
3.3563251 -0.7054534 -1.7226909
3.897542 -0.81920975 -0.37156776
3.552278 -0.74663997 -1.7181703
3.9127421 -0.82240456 -0.27958396
3.8156388 -0.8019948 -1.735952
3.9023974 -0.82023025 -0.18596105
3.8847444 -0.81651986 -1.6580895
3.9134128 -0.82254553 -0.092843182
3.9070425 -0.82120663 -1.5589855
3.9046814 -0.8207103 0
3.9193311 -0.82378948 -1.4576898
3.9143012 -0.82273227 -1.3515339
3.9004426 -0.81981939 0.18586789
3.919872 -0.8239032 -1.2498825
3.8873599 -0.81706959 0.27777028
3.900171 -0.81976235 -1.1427926
5.9340076 -1.2472469 0.56571192
3.9099307 -0.82181364 -1.0459285
3.9118483 -0.82221669 -0.94713753
5.9463549 -1.2498419 0.85396618
3.9016767 -0.82007879 -0.84744811
5.9543257 -1.2515174 0.99963522
3.9198747 -0.82390374 -0.75467998
5.943284 -1.2491966 1.14424
2.8753245 -0.61274278 -1.7434969
3.9086559 -0.83294964 -0.65658814
3.0065031 -0.64069742 -1.7271725
3.9108856 -0.83342481 -0.56198102
3.188252 -0.67942882 -1.7332891
3.903161 -0.83177871 -0.46669352
3.3770652 -0.71966565 -1.7343609
3.901082 -0.83133566 -0.37212512
3.5413389 -0.754673 -1.7138919
3.9162841 -0.8345753 -0.2800025
3.7937279 -0.80845803 -1.7270039
3.9000916 -0.8311246 -0.18596105
3.8842545 -0.82774961 -1.6588604
3.9013228 -0.83138698 -0.092611082
3.9156666 -0.83444369 -1.5633504
3.900418 -0.83119416 0
3.9151773 -0.83433944 -1.4570059
3.9156947 -0.83444965 -1.3528144
3.9000916 -0.8311246 0.18596105
3.9231579 -0.83604008 -1.2516698
3.8850629 -0.82792193 0.27777028
3.9110286 -0.83345532 -1.1466515
5.9168682 -1.2609075 0.56441146
3.9132974 -0.83393884 -1.0474479
3.9133432 -0.83394855 -0.94805974
5.9273453 -1.2631402 0.85173947
3.9070246 -0.83260208 -0.84911138
5.917994 -1.2611475 0.9941231
3.9214034 -0.83566624 -0.75542063
5.9186282 -1.2612826 1.1401668
2.8500617 -0.61568451 -1.7292142
3.9101727 -0.84469497 -0.65723664
3.0115192 -0.65056336 -1.7310911
3.9162865 -0.84601569 -0.56309438
3.2001507 -0.69131249 -1.7408007
3.9105315 -0.84477252 -0.46785507
3.366308 -0.72720659 -1.7298725
3.900692 -0.8426469 -0.37231094
3.5427516 -0.7653228 -1.7156032
3.9158883 -0.84592968 -0.28014201
3.7878835 -0.81827742 -1.7253768
3.913378 -0.8453874 -0.18670639
3.8909469 -0.84054172 -1.6627146
3.9107125 -0.84481156 -0.092889614
3.9096792 -0.84458834 -1.5618954
3.9059014 -0.84377229 0
3.9091578 -0.84447575 -1.4556377
3.9114969 -0.84498101 -1.352174
3.895803 -0.84159076 0.18586789
3.9170754 -0.8461861 -1.2504783
3.8866363 -0.83961052 0.27804932
3.9068065 -0.84396774 -1.1461002
5.8880205 -1.2719594 0.56199622
3.9128444 -0.84527212 -1.0479544
3.9071951 -0.84405172 -0.94713753
5.9025002 -1.2750875 0.84867769
3.9046843 -0.84350932 -0.84911138
5.8951588 -1.2735015 0.99088073
3.9113696 -0.84495354 -0.75393933
5.8920293 -1.2728255 1.135723
2.8615561 -0.62758332 -1.7373757
3.9171379 -0.85908872 -0.65885782
3.0009449 -0.65815353 -1.7261928
3.9078054 -0.85704195 -0.56225932
3.197963 -0.70136261 -1.7408007
3.9020374 -0.85577697 -0.46715814
3.3535326 -0.73548138 -1.7244864
3.9019156 -0.8557502 -0.37268245
3.5420954 -0.77683616 -1.7164588
3.9151602 -0.85865504 -0.28028151
3.7942176 -0.83213043 -1.7294444
3.9087512 -0.85724944 -0.18661322
3.8918924 -0.85355198 -1.6642565
3.913898 -0.85837817 -0.093028881
3.9033673 -0.85606861 -1.5604405
3.9032314 -0.85603887 0
3.9193358 -0.8595708 -1.460426
3.9143755 -0.8584829 -1.3540947
3.9028969 -0.85596544 0.18633372
3.9218576 -0.86012381 -1.2528613
5.8795614 -1.2894784 0.42091057
3.9116478 -0.85788471 -1.1483053
5.8625989 -1.2857584 0.55995262
3.9101696 -0.85756046 -1.0479544
3.906425 -0.85673922 -0.94759864
5.8771849 -1.2889572 0.8456158
3.9134808 -0.85828668 -0.85160637
5.8718519 -1.2877877 0.98763829
3.9182954 -0.85934258 -0.75579089
5.8764825 -1.2888032 1.1335012
2.8680773 -0.6379385 -1.7424767
3.9107192 -0.8698504 -0.65820938
3.0108931 -0.66970462 -1.7330505
3.9129789 -0.87035304 -0.56337279
3.1924205 -0.71008128 -1.7389228
3.9052982 -0.86864465 -0.46785507
3.3705256 -0.74969667 -1.7343609
3.9013035 -0.86775613 -0.37286827
3.5397749 -0.78734231 -1.7164588
3.9106479 -0.86983454 -0.28014201
3.809567 -0.84735143 -1.7375791
3.9022906 -0.86797565 -0.18642689
3.8929453 -0.86589706 -1.6657979
3.9015751 -0.86781651 -0.092796765
3.9099026 -0.86966878 -1.5640779
3.9026265 -0.8680504 0
3.9130995 -0.87037987 -1.4590579
3.9136608 -0.87050474 -1.3547351
3.9003398 -0.86754179 0.18633372
3.9211514 -0.87217087 -1.253457
5.8601289 -1.3034523 0.41979444
3.9090853 -0.86948699 -1.1483053
5.8412638 -1.2992561 0.55828059
3.9019418 -0.86789811 -1.0464349
3.9133642 -0.87043875 -0.94990432
5.8501353 -1.3012294 0.84227568
3.9051876 -0.86862004 -0.8503589
5.8602991 -1.30349 0.9863413
3.9080544 -0.86925769 -0.75430971
5.8515291 -1.3015394 1.1294279
2.8663974 -0.64544487 -1.7424767
3.9161296 -0.88181973 -0.65950632
3.0006242 -0.67566955 -1.7281522
3.9106867 -0.88059413 -0.56337279
3.181937 -0.71649688 -1.7342281
3.9049487 -0.87930202 -0.46808735
3.3685513 -0.75851804 -1.7343609
3.8951328 -0.87709171 -0.37249669
3.5394652 -0.79700381 -1.7173146
3.9141967 -0.88138449 -0.28056055
3.7984228 -0.85531497 -1.7335116
3.9116991 -0.88082206 -0.18698591
3.8924658 -0.87649119 -1.666569
3.9109933 -0.88066316 -0.093075298
3.9112473 -0.88072038 -1.5655328
3.9100964 -0.88046122 0
3.9163077 -0.88185984 -1.4611101
3.9169137 -0.88199633 -1.3566558
3.9019535 -0.8786276 0.18652005
3.9225802 -0.88327229 -1.2546486
5.8352861 -1.3139683 0.41825983
3.9049194 -0.87929547 -1.147754
5.8203578 -1.3106068 0.5566085
3.9128695 -0.88108563 -1.0499805
3.909173 -0.88025326 -0.9494431
5.8273869 -1.3121896 0.8394922
3.9048088 -0.87927049 -0.85077471
5.8376131 -1.3144923 0.98309886
3.9268563 -0.88423514 -0.75838304
5.8212576 -1.3108095 1.1242436
2.8493757 -0.65050089 -1.7332951
3.913496 -0.89343518 -0.65950632
2.9952066 -0.68379349 -1.7261928
3.9119182 -0.89307499 -0.56392944
3.1608593 -0.72161132 -1.7238997
3.9081323 -0.89221066 -0.46878424
3.3593166 -0.7669183 -1.7307702
3.9080443 -0.89219064 -0.37398294
3.5494215 -0.81031847 -1.7233043
3.9212897 -0.89521444 -0.28125811
3.8029933 -0.86820793 -1.7367655
3.9110157 -0.892869 -0.18707906
3.8880486 -0.88762569 -1.6657979
3.9044647 -0.8913734 -0.092982449
3.9176984 -0.89439458 -1.5691701
3.9055169 -0.8916136 0
3.9173381 -0.89431238 -1.462478
3.9142797 -0.89361411 -1.3566558
3.9012771 -0.89064568 0.18661322
3.9236646 -0.89575666 -1.2558399
5.8119116 -1.3268358 0.41686469
3.9079165 -0.89216143 -1.1494079
5.7950878 -1.3229949 0.55456489
3.9140105 -0.89355266 -1.0509934
3.917928 -0.89444703 -0.95220983
5.8060904 -1.3255068 0.83698714
3.9040902 -0.89128786 -0.85119057
5.7990546 -1.3239006 0.97726256
3.9242156 -0.89588243 -0.75838304
5.8039298 -1.3250136 1.1216514
2.8407295 -0.65740091 -1.7292142
3.908905 -0.90459788 -0.65918201
2.9931648 -0.69267744 -1.7261928
3.91504 -0.9060176 -0.5647645
3.1913924 -0.73855126 -1.7417396
3.911274 -0.90514606 -0.46948117
3.3692148 -0.77970284 -1.7370541
3.8976195 -0.90198618 -0.37323982
3.5276287 -0.81636298 -1.7138919
3.9166725 -0.90639544 -0.2811186
3.8004007 -0.87948781 -1.7367655
3.9141886 -0.90582055 -0.18735857
3.8907919 -0.90040612 -1.6681105
3.917387 -0.90656078 -0.09335383
3.9132125 -0.90559471 -1.5684427
3.9086998 -0.90455037 0
3.9164989 -0.9063552 -1.4631622
3.915303 -0.90607846 -1.3579363
3.9083495 -0.90446931 0.18707906
3.9209898 -0.90739447 -1.2558399
5.7923989 -1.3404756 0.4157486
3.9052522 -0.90375251 -1.1494079
5.7756166 -1.3365918 0.55307865
3.9188819 -0.90690672 -1.0530194
3.9133611 -0.9056291 -0.95174873
5.7866955 -1.3391557 0.83476031
3.9052403 -0.90374976 -0.85202217
5.7797194 -1.3375412 0.97466856
3.9177103 -0.90663558 -0.75764239
5.7827401 -1.3382404 1.1183188
2.8305082 -0.66336846 -1.7241133
3.9178927 -0.91821194 -0.66112751
2.9946139 -0.7018289 -1.7281522
3.9105666 -0.91649503 -0.56448615
3.1583703 -0.74020743 -1.7248387
3.900995 -0.9142518 -0.46855196
3.3670242 -0.7891084 -1.7370541
3.9009023 -0.91422999 -0.37379718
3.5253351 -0.82621074 -1.7138919
3.9160686 -0.91778445 -0.28125811
3.783699 -0.88676184 -1.7302577
3.9155338 -0.9176591 -0.18754488
3.8918562 -0.91210997 -1.6696523
3.9128931 -0.91704023 -0.093307398
3.9179237 -0.91821927 -1.5713526
3.9042113 -0.91500556 0
3.9176118 -0.91814613 -1.4645302
3.9219813 -0.9191702 -1.3611375
3.9038637 -0.91492409 0.18698591
3.9221582 -0.91921169 -1.2570316
5.7653232 -1.3511827 0.41407442
3.9083285 -0.91597044 -1.1510617
5.7524738 -1.3481712 0.55122083
3.9125667 -0.91696376 -1.0520065
3.9108169 -0.91655368 -0.95174873
5.7675071 -1.3516945 0.83253354
3.9007969 -0.91420531 -0.85160637
5.7644324 -1.350974 0.97272319
3.9209042 -0.91891778 -0.7587533
5.7541037 -1.3485533 1.1135048
2.841917 -0.67494386 -1.7322748
3.9093902 -0.92846441 -0.66015476
2.9908221 -0.71030819 -1.7271725
3.9136107 -0.92946678 -0.56532121
3.1767771 -0.75447178 -1.7361059
3.9137266 -0.92949432 -0.47041035
3.3559737 -0.79703021 -1.7325655
3.9039845 -0.92718059 -0.37435454
3.5299034 -0.83833784 -1.7173146
3.9152691 -0.92986065 -0.28139764
3.7952721 -0.90136182 -1.7367655
3.9030752 -0.92696464 -0.18707906
3.8945193 -0.92493266 -1.6719649
3.9121006 -0.92910808 -0.09335383
3.9151819 -0.92983997 -1.5713526
3.9053712 -0.9275099 0
3.9203563 -0.93106878 -1.4665823
3.9210799 -0.93124068 -1.3617777
3.9030752 -0.92696464 0.18707906
3.9231281 -0.93172717 -1.2582229
5.7418771 -1.3636727 0.41267931
3.9112051 -0.92889547 -1.1527154
5.7329483 -1.3615521 0.54973453
3.9173582 -0.9303568 -1.0540326
3.9137604 -0.92950237 -0.95313209
5.7442012 -1.3642247 0.82975012
3.9113903 -0.9289394 -0.8545171
5.7469578 -1.3648793 0.97045344
3.9143362 -0.9296391 -0.75801277
5.7366915 -1.3624412 1.1109127
2.8582993 -0.68779999 -1.7434969
3.914294 -0.94190681 -0.66145182
3.0022628 -0.72244233 -1.7350098
3.9108357 -0.94107455 -0.56532121
3.169374 -0.76265472 -1.7332891
3.9148142 -0.94203198 -0.47087497
3.3292677 -0.80113035 -1.7199978
3.8934722 -0.93689638 -0.37361142
3.5432184 -0.85261387 -1.7250154
3.912493 -0.94147336 -0.28139764
3.7819233 -0.91005403 -1.7318847
3.9041922 -0.93947595 -0.18726538
3.886375 -0.93518853 -1.6696523
3.9151583 -0.94211471 -0.093493097
3.9160285 -0.94232416 -1.5728077
3.9103799 -0.94096494 0
3.9157488 -0.94225687 -1.4658984
3.9182997 -0.94287068 -1.3617777
3.9041922 -0.93947595 0.18726538
3.9222033 -0.94380999 -1.2588187
5.7145286 -1.3751019 0.41100514
3.9065626 -0.94004631 -1.1521642
5.7056499 -1.3729653 0.54750508
3.9164615 -0.94242835 -1.054539
3.9090929 -0.94065523 -0.95267093
5.7170215 -1.3757018 0.82640994
3.9105186 -0.94099826 -0.8549329
5.721776 -1.376846 0.96688682
3.9287581 -0.9453873 -0.76134545
5.7135153 -1.374858 1.1072097
2.8581603 -0.69568747 -1.744517
3.9137318 -0.95261782 -0.66177601
2.9800315 -0.72535145 -1.7232537
3.9122066 -0.95224655 -0.56587785
3.1793768 -0.77387291 -1.7398617
3.9084742 -0.95133811 -0.47041035
3.3566797 -0.81702906 -1.7352587
3.9103549 -0.95179582 -0.37546924
3.5497565 -0.86402476 -1.7292938
3.9177687 -0.95360041 -0.28195569
3.7937295 -0.92340875 -1.7383925
3.9094844 -0.95158392 -0.18763807
3.9000514 -0.94928789 -1.67659
3.9087925 -0.95141554 -0.093400247
3.9171684 -0.95345426 -1.5742625
3.9059594 -0.95072597 0
3.9205732 -0.954283 -1.4686345
3.917659 -0.95357364 -1.3624178
3.9036605 -0.9501664 0.18735857
3.9271388 -0.95588106 -1.2612017
5.7012167 -1.3876987 0.41030759
3.9134281 -0.95254385 -1.1549206
5.6865568 -1.3841305 0.54601884
3.9177411 -0.95359361 -1.055552
3.914181 -0.95272708 -0.95451546
5.6999302 -1.3873855 0.82446152
3.9099429 -0.95169556 -0.85534883
5.6989765 -1.3871534 0.96364444
3.9262695 -0.95566952 -0.76134545
5.6946187 -1.3860927 1.1042472
2.8325784 -0.69889402 -1.7302345
3.9068878 -0.96396285 -0.66112751
2.9828167 -0.73596293 -1.7261928
3.9149649 -0.96595579 -0.56671292
3.1666434 -0.78131932 -1.7342281
3.9151099 -0.96599156 -0.47157189
3.350626 -0.8267141 -1.7334633
3.8957448 -0.96121353 -0.37435454
3.538249 -0.87300706 -1.7250154
3.9166908 -0.96638161 -0.28209516
3.7925837 -0.9357602 -1.7392058
3.9161737 -0.966254 -0.18810388
3.891675 -0.96020937 -1.6742774
3.9193735 -0.96704358 -0.093725197
3.9141538 -0.96575564 -1.5742625
3.9048955 -0.96347135 0
3.917556 -0.96659511 -1.4686345
3.9201629 -0.96723831 -1.3643385
3.9045355 -0.96338248 0.18754488
3.9296775 -0.9695859 -1.262989
5.6813326 -1.4017792 0.40919146
3.9141495 -0.96575463 -1.1560231
5.6667142 -1.3981724 0.5445326
3.9166043 -0.96636027 -1.0560585
3.913058 -0.96548527 -0.95497656
5.6820836 -1.4019644 0.8225131
3.9050341 -0.96350551 -0.8549329
5.6658497 -1.397959 0.95878083
3.9156153 -0.96611625 -0.75986421
5.6692462 -1.398797 1.1001738
2.8456368 -0.7105521 -1.7394161
3.9194987 -0.97869414 -0.66372144
2.9909 -0.74682415 -1.7320709
3.9084094 -0.97592515 -0.56615621
3.169589 -0.79144257 -1.7370449
3.9066148 -0.97547704 -0.47087497
3.3413682 -0.83433568 -1.7298725
3.9007738 -0.97401851 -0.37509766
3.539305 -0.88376021 -1.7267269
3.9101055 -0.97634864 -0.28181612
3.8076823 -0.95077372 -1.7473406
3.91346 -0.97718626 -0.18810388
3.8943496 -0.97241443 -1.67659
3.9166577 -0.97798473 -0.093725197
3.9222865 -0.97939026 -1.5786273
3.9080112 -0.97582567 0
3.9203115 -0.97889709 -1.4706866
3.9247997 -0.98001772 -1.3668995
3.9076452 -0.97573429 0.18782438
3.9232497 -0.97963077 -1.2617974
5.6561031 -1.4123222 0.40765685
3.915168 -0.97761273 -1.1571257
5.6415348 -1.4086845 0.54248893
3.917645 -0.97823125 -1.0570716
3.9084585 -0.97593737 -0.95451546
5.6589308 -1.4130282 0.81972963
3.9061246 -0.97535461 -0.85576457
5.6542645 -1.411863 0.95748383
3.9243433 -0.97990382 -0.76208609
5.6481562 -1.4103378 1.0968411
2.840306 -0.71765304 -1.7373757
3.9148371 -0.98915213 -0.66339719
2.9786599 -0.75261056 -1.7261928
3.9191101 -0.99023181 -0.56810462
3.1776392 -0.80288619 -1.7426785
3.915431 -0.98930222 -0.47226873
3.3355601 -0.84278762 -1.7280771
3.8999691 -0.98539549 -0.37528342
3.514039 -0.88788348 -1.7156032
3.9151015 -0.98921895 -0.2823742
3.7926126 -0.95827001 -1.7416463
3.9145901 -0.98908973 -0.18829024
3.8934081 -0.98373771 -1.6773608
3.911973 -0.98842847 -0.09367878
3.9141178 -0.98897034 -1.576445
3.9072099 -0.987225 0
3.9212072 -0.99076164 -1.4720547
3.9202108 -0.99050993 -1.3662592
3.9029682 -0.98615324 0.18773122
3.9297543 -0.99292123 -1.2647762
5.6327939 -1.423224 0.40626171
3.9142864 -0.98901302 -1.1576769
5.6240644 -1.4210184 0.54118848
3.9092703 -0.98774558 -1.055552
3.9151518 -0.98923165 -0.95682102
5.6357613 -1.4239737 0.81694621
3.9109721 -0.98817557 -0.8574279
5.6349926 -1.4237796 0.95488995
3.9196863 -0.99037737 -0.76171577
5.6251402 -1.4212902 1.0931381
2.8413703 -0.72742581 -1.7394161
3.915534 -1.0024251 -0.66404569
3.0016179 -0.76845121 -1.7408879
3.9083052 -1.0005744 -0.56699127
3.1785226 -0.81374097 -1.7445564
3.918077 -1.0030761 -0.47296566
3.3259704 -0.85148948 -1.7244864
3.9007127 -0.99863058 -0.37565503
3.5199883 -0.90116042 -1.7198814
3.9100411 -1.0010188 -0.28223467
3.7648034 -0.96383613 -1.7302577
3.9133985 -1.0018783 -0.1883834
3.8956621 -0.99733752 -1.6796733
3.9165962 -1.0026969 -0.093864463
3.9182105 -1.0031103 -1.5793548
3.9099016 -1.0009831 0
3.9217162 -1.0040077 -1.4734228
3.9225862 -1.0042304 -1.3681799
3.9075925 -1.0003918 0.18810388
3.9266155 -1.005262 -1.2647762
5.6128325 -1.4369544 0.40514559
3.9130225 -1.0017821 -1.1582283
5.5964231 -1.4327533 0.53895903
3.9136453 -1.0019414 -1.057578
3.9101396 -1.001044 -0.95635992
5.6120729 -1.4367599 0.81416273
3.9059534 -0.99997228 -0.85701209
5.6190205 -1.4385386 0.95294446
3.9165554 -1.0026865 -0.76171577
5.6016073 -1.4340806 1.089435
2.8393278 -0.73535758 -1.7394161
3.9184508 -1.0148396 -0.66501844
2.9825809 -0.77245867 -1.7310911
3.9131651 -1.0134708 -0.56810462
3.16769 -0.82040018 -1.7398617
3.9133377 -1.0135155 -0.47273338
3.3599124 -0.87018377 -1.7433381
3.903692 -1.0110173 -0.37621236
3.5454578 -0.91823822 -1.733572
3.9188192 -1.0149351 -0.28307176
3.7833221 -0.97984272 -1.7400194
3.9125197 -1.0133036 -0.18847655
3.8946481 -1.008675 -1.6804441
3.9060388 -1.0116251 -0.09367878
3.9226081 -1.0159163 -1.5822649
3.9090271 -1.0123991 0
3.9243553 -1.0163689 -1.4754748
3.9216008 -1.0156555 -1.3688202
3.9047837 -1.0113 0.18810388
3.9311857 -1.0181379 -1.2671592
5.5914154 -1.4481208 0.40388998
3.912071 -1.0131874 -1.1587795
5.5769782 -1.4443818 0.53747278
3.918324 -1.0148069 -1.059604
3.9129808 -1.013423 -0.95774329
5.5907836 -1.4479572 0.81165761
3.9069338 -1.0118569 -0.85784376
5.5920553 -1.4482865 0.94905353
3.9232535 -1.0160835 -0.76356727
5.5823598 -1.4457755 1.0864726
2.8505759 -0.7467711 -1.7475775
3.9117832 -1.0247777 -0.66436988
2.9854722 -0.78211015 -1.7340302
3.9160669 -1.0258999 -0.56893969
3.1585538 -0.82745272 -1.7361059
3.9104919 -1.0244395 -0.47273338
3.3626556 -0.88092166 -1.746031
3.9027796 -1.022419 -0.37639815
3.5306389 -0.92492861 -1.7275825
3.9101794 -1.0243576 -0.28265321
3.787641 -0.99225593 -1.7432734
3.9154725 -1.0257442 -0.18875606
3.897172 -1.02095 -1.6827567
3.9225399 -1.0275956 -0.094142996
3.9179535 -1.0263941 -1.5815372
3.9100542 -1.0243248 0
3.917866 -1.0263712 -1.4741069
3.9169161 -1.0261225 -1.3681799
3.9058096 -1.0232128 0.18829024
3.9283271 -1.0291117 -1.2671592
5.5738397 -1.4601899 0.40291342
3.9148054 -1.0255694 -1.1604333
5.5575123 -1.4559127 0.53598654
3.9229617 -1.0277061 -1.0616301
3.9120178 -1.0248392 -0.95820439
5.5675592 -1.4585447 0.80887413
3.9116623 -1.0247461 -0.85950702
5.5669889 -1.4583952 0.9454869
3.9165983 -1.0260391 -0.76282674
5.559288 -1.4563777 1.0827695
2.8332515 -0.75175232 -1.7383959
3.9161749 -1.0390866 -0.66566694
2.9745741 -0.78924966 -1.7291318
3.9109101 -1.0376897 -0.56866133
3.162766 -0.83918303 -1.7398617
3.9072545 -1.0367197 -0.47273338
3.3322327 -0.884148 -1.7316679
3.9053228 -1.0362072 -0.37695551
3.5364523 -0.93833399 -1.7318609
3.9146559 -1.0386835 -0.28321129
3.777441 -1.0022759 -1.7400194
3.9160929 -1.0390648 -0.1889424
3.8921616 -1.0327151 -1.6819859
3.9173598 -1.0394009 -0.094096571
3.9183111 -1.0396534 -1.5829923
3.9087501 -1.0371165 0
3.9273376 -1.0420483 -1.4788952
3.9264929 -1.0418242 -1.3726616
3.9103 -1.0375278 0.1886629
3.9306109 -1.0429169 -1.2689465
5.5499401 -1.4725767 0.40151826
3.9097064 -1.0373702 -1.1598821
5.5336633 -1.468258 0.53412867
3.9159734 -1.0390332 -1.0606171
3.9144223 -1.0386215 -0.95958775
5.5552926 -1.4739969 0.80776078
3.9046416 -1.0360264 -0.85867536
5.5471196 -1.4718283 0.94289303
3.9228537 -1.0408586 -0.76467818
5.5394878 -1.4698035 1.079807
2.8213043 -0.75649405 -1.7322748
3.9134412 -1.0493355 -0.66566694
2.9724975 -0.79703444 -1.7291318
3.9196579 -1.0510025 -0.57033139
3.1656754 -0.84883237 -1.7426785
3.9083643 -1.0479742 -0.473198
3.3454425 -0.89703447 -1.7397472
3.8987501 -1.0453963 -0.37658396
3.5427136 -0.94993001 -1.7361391
3.9119232 -1.0489285 -0.28321129
3.7800984 -1.0135815 -1.7424599
3.9152884 -1.0498309 -0.18903556
3.8947923 -1.0443351 -1.6842984
3.9146254 -1.0496531 -0.094096571
3.9209743 -1.0513555 -1.5851747
3.9040897 -1.0468282 0
3.9245961 -1.0523266 -1.4788952
3.921922 -1.0516095 -1.3720214
3.9075704 -1.0477613 0.1886629
3.9278672 -1.0532037 -1.2689465
5.5306497 -1.4829679 0.40040216
3.9144046 -1.0495939 -1.1620871
5.5144129 -1.4786142 0.53264242
3.9151084 -1.0497826 -1.0611235
3.9210885 -1.051386 -0.96189338
5.526546 -1.4818676 0.80414224
3.9113641 -1.0487785 -0.86075449
5.5318098 -1.483279 0.94094759
3.9182172 -1.0506161 -0.76430792
5.5204339 -1.4802287 1.0768447
2.8290088 -0.7675643 -1.7383959
3.9141197 -1.0619757 -0.66631538
2.9633884 -0.80402404 -1.7252131
3.9107883 -1.0610719 -0.56949633
3.1580298 -0.85683405 -1.7398617
3.9167404 -1.0626868 -0.47459176
3.3479409 -0.9083606 -1.7424403
3.9033184 -1.0590451 -0.37732708
3.5381351 -0.95996386 -1.7352835
3.916496 -1.0626205 -0.28376934
3.7717843 -1.0233574 -1.7400194
3.9140851 -1.0619663 -0.18912874
3.8988011 -1.0578195 -1.6873817
3.9172831 -1.062834 -0.094235837
3.9232316 -1.064448 -1.5873572
3.9125481 -1.0615493 0
3.9196424 -1.0634742 -1.478211
3.9224424 -1.0642338 -1.373302
3.9121566 -1.0614431 0.18903556
3.9284103 -1.065853 -1.270138
5.5088959 -1.4946691 0.39914653
3.9168394 -1.0627136 -1.163741
5.494627 -1.4907976 0.53115612
3.9138441 -1.0619009 -1.0616301
3.9179518 -1.0630155 -0.96189338
5.5087447 -1.4946281 0.80219382
3.9120111 -1.0614036 -0.86158609
5.508338 -1.4945177 0.93770516
3.9169793 -1.0627515 -0.76467818
5.4970493 -1.4914548 1.0731417
2.8350132 -0.77823168 -1.7434969
3.9185638 -1.0756742 -0.66761231
2.9693971 -0.81512094 -1.7301115
3.9076228 -1.0726708 -0.56949633
3.1520679 -0.86526549 -1.7379838
3.9116545 -1.0737776 -0.47435948
3.3211026 -0.91166675 -1.7298725
3.90592 -1.0722034 -0.37788445
3.5160956 -0.96519369 -1.7258712
3.9152496 -1.0747644 -0.28390884
3.7740173 -1.0359951 -1.7424599
3.9147699 -1.0746326 -0.18931507
3.8992047 -1.0703599 -1.6889235
3.9102559 -1.0733936 -0.094142996
3.9218526 -1.0765769 -1.5880846
3.9151671 -1.0747417 0
3.9237199 -1.0770895 -1.4809473
3.9247487 -1.077372 -1.3752224
3.910917 -1.073575 0.18912874
3.932595 -1.0795258 -1.272521
5.4928927 -1.5078388 0.39830944
3.9155231 -1.0748395 -1.1642922
5.4748168 -1.5028768 0.52966982
3.9088101 -1.0729966 -1.0611235
3.9185336 -1.0756658 -0.96281558
5.4909172 -1.5072964 0.8002454
3.9088445 -1.0730062 -0.86158609
5.4924607 -1.5077202 0.93575972
3.9138088 -1.0743688 -0.76467818
5.4812279 -1.5046368 1.0709198
2.82302 -0.78289276 -1.7373757
3.9138329 -1.0854019 -0.66728806
2.9722934 -0.82428992 -1.7330505
3.9181609 -1.0866022 -0.57144481
3.1497917 -0.87351459 -1.7379838
3.9050019 -1.0829529 -0.47389489
3.3118157 -0.91844779 -1.7262816
3.8992615 -1.0813609 -0.37751284
3.5518799 -0.9850235 -1.7446957
3.9143448 -1.0855439 -0.28404835
3.7888982 -1.0507545 -1.7505946
3.9157937 -1.0859457 -0.1895014
3.9017234 -1.0820436 -1.6912359
3.9112859 -1.0846956 -0.094235837
3.9262016 -1.0888321 -1.5909945
3.9142671 -1.0855224 0
3.9226975 -1.0878603 -1.4816313
3.9273918 -1.0891621 -1.3771433
3.906167 -1.083276 0.18903556
3.9315946 -1.0903277 -1.2731167
5.4716234 -1.5174155 0.39705387
3.9108429 -1.0845728 -1.163741
5.4535937 -1.5124154 0.52799785
3.9190385 -1.0868456 -1.064669
3.9194548 -1.086961 -0.96373785
5.4697752 -1.5169029 0.79774028
3.915448 -1.0858499 -0.86366528
5.4675751 -1.5162928 0.9321931
3.9185584 -1.0867125 -0.76615942
5.4602246 -1.5142543 1.067587
2.8206847 -0.79126531 -1.7373757
3.918196 -1.0991418 -0.66858506
2.9496887 -0.82745379 -1.7212944
3.9072914 -1.0960829 -0.57033139
3.1539872 -0.88476419 -1.7417396
3.9075091 -1.096144 -0.47459176
3.3469331 -0.93888986 -1.746031
3.897953 -1.0934633 -0.37769863
3.5176122 -0.98676914 -1.7292938
3.9207118 -1.0998476 -0.28474593
3.7716904 -1.0580437 -1.7440867
3.9144776 -1.0980988 -0.18959457
3.8984957 -1.0936155 -1.6912359
3.9080503 -1.0962957 -0.094235837
3.92116 -1.0999733 -1.5902671
3.91488 -1.0982116 0
3.9321189 -1.1030476 -1.4864196
3.9223187 -1.1002984 -1.376503
3.91063 -1.0970194 0.18940823
3.9209895 -1.0999255 -1.2707337
5.453651 -1.5298713 0.39607728
3.9168634 -1.0987681 -1.1664973
5.4318256 -1.523749 0.52632576
3.9176595 -1.0989914 -1.0651757
3.9162126 -1.0985855 -0.96373785
5.4519019 -1.5293808 0.79579186
3.9046745 -1.0953487 -0.86200202
5.4421501 -1.5266451 0.92862636
3.9247792 -1.1009885 -0.76801097
5.4386764 -1.5256706 1.0642543
2.8148754 -0.79918307 -1.7353354
3.9128251 -1.1109066 -0.66826081
2.9504294 -0.83766884 -1.7232537
3.9114504 -1.1105163 -0.57144481
3.1359036 -0.89032757 -1.7332891
3.9097793 -1.1100419 -0.47528866
3.3198977 -0.94256616 -1.7334633
3.9059925 -1.1089668 -0.37881333
3.5231898 -1.0002836 -1.733572
3.9210758 -1.1132492 -0.28502494
3.7665906 -1.0693886 -1.7432734
3.9129305 -1.1109366 -0.18968773
3.8985918 -1.1068656 -1.6927776
3.9142039 -1.1112981 -0.094467945
3.926646 -1.1148306 -1.5939045
3.9056394 -1.1088666 0
3.9250183 -1.1143686 -1.4850514
3.9243112 -1.1141677 -1.3784237
3.9148526 -1.1114823 0.18978091
3.9340444 -1.1169311 -1.2760955
5.4334636 -1.5426375 0.39496115
3.9133925 -1.1110678 -1.1664973
5.4155183 -1.5375427 0.52521104
3.9123263 -1.1107651 -1.064669
3.9183583 -1.1124777 -0.96512121
5.4299235 -1.5416325 0.79328674
3.9106238 -1.1102817 -0.86408103
5.4183421 -1.5383444 0.92538399
3.9175196 -1.1122395 -0.76727033
5.4187312 -1.5384548 1.0612919
2.8127732 -0.80654979 -1.7353354
3.9193885 -1.1238666 -0.669882
2.9750435 -0.85308003 -1.7389286
3.9123366 -1.1218445 -0.57200146
3.1539316 -0.90437537 -1.7445564
3.9087691 -1.1208216 -0.475521
3.3208544 -0.95223969 -1.7352587
3.8973334 -1.1175424 -0.37825596
3.5118706 -1.0070127 -1.7292938
3.9219835 -1.1246107 -0.28530398
3.7602651 -1.0782386 -1.7416463
3.9176903 -1.1233796 -0.19006041
3.8992288 -1.1180859 -1.6943194
3.9112811 -1.1215417 -0.094467945
3.9183412 -1.1235663 -1.591722
3.9084899 -1.1207415 0
3.9347336 -1.1282668 -1.4898398
3.9250238 -1.1254824 -1.3797042
3.919611 -1.1239303 0.19015357
3.9366126 -1.1288055 -1.2778828
5.4102278 -1.5513579 0.39356601
3.914166 -1.1223691 -1.1675999
5.3942461 -1.5467752 0.52353901
3.9187043 -1.1236703 -1.0672016
3.9154325 -1.1227322 -0.96512121
5.4125419 -1.5520215 0.79133832
3.9133451 -1.1221336 -0.86532855
5.4067073 -1.5503484 0.92408699
3.9145942 -1.1224918 -0.76727033
5.39957 -1.5483018 1.0583295
2.8434114 -0.82447314 -1.7557391
3.9160366 -1.1354907 -0.669882
2.9658005 -0.85996097 -1.7350098
3.9165995 -1.1356539 -0.57311487
3.130882 -0.90782785 -1.7332891
3.9168739 -1.1357334 -0.47691482
3.3317466 -0.96607041 -1.7424403
3.9093013 -1.1335377 -0.37974226
3.5158119 -1.0194418 -1.7327164
3.9186294 -1.1362424 -0.28530398
3.7342367 -1.0827761 -1.7310711
3.91434 -1.1349987 -0.19006041
3.9029841 -1.1317059 -1.6974027
3.9136975 -1.1348124 -0.094607204
3.9185688 -1.1362249 -1.593177
3.9109101 -1.1340041 0
3.9295635 -1.1394129 -1.4891557
3.928946 -1.1392338 -1.3822652
3.9162588 -1.135555 0.19015357
3.9222436 -1.1372904 -1.2743083
5.3902717 -1.5629585 0.39244995
3.9163578 -1.1355838 -1.1692537
5.3724198 -1.5577822 0.52186692
3.9153531 -1.1352924 -1.0672016
3.915822 -1.1354283 -0.96604335
5.3869886 -1.5620066 0.78827649
3.9099984 -1.1337397 -0.86532855
5.3850245 -1.5614371 0.9211688
3.9131341 -1.134649 -0.76764065
5.377964 -1.5593898 1.0549967
2.8013346 -0.82129085 -1.7312546
3.9107563 -1.1465495 -0.66955775
2.95487 -0.86630416 -1.7301115
3.9189146 -1.1489413 -0.57394987
3.1502039 -0.92357188 -1.7454954
3.907768 -1.1456733 -0.47621793
3.3202903 -0.97343755 -1.7379519
3.9020987 -1.1440111 -0.37937069
3.5214453 -1.0324118 -1.7369949
3.9190702 -1.1489868 -0.28558302
3.7380211 -1.0959072 -1.7343252
3.9167063 -1.1482939 -0.19033989
3.8996089 -1.1432812 -1.6974027
3.9218252 -1.1497946 -0.094885737
3.9187558 -1.1488947 -1.5946319
3.9094477 -1.1461658 0
3.9207549 -1.1494808 -1.4871035
3.9200938 -1.149287 -1.3803444
3.910955 -1.1466076 0.19006041
3.9261804 -1.1510714 -1.2766912
5.3702936 -1.5744542 0.39133382
3.9185059 -1.1488215 -1.1709075
5.3524866 -1.5692338 0.52038068
3.9212501 -1.149626 -1.0697341
3.9161711 -1.1481369 -0.96696568
5.3671265 -1.5735258 0.78604972
3.9160039 -1.148088 -0.86740768
5.3690047 -1.5740764 0.91922337
3.9191799 -1.1490191 -0.76949215
5.3544531 -1.5698102 1.0512937
2.8006797 -0.8295992 -1.7322748
3.9207857 -1.1613896 -0.67182744
2.9424086 -0.8715812 -1.7242335
3.9137924 -1.1593181 -0.57367158
3.1509991 -0.93336844 -1.7473732
3.9121723 -1.1588383 -0.4771471
3.3072774 -0.97966021 -1.7325655
3.9065261 -1.1571658 -0.38011381
3.4977493 -1.0360806 -1.7267269
3.9234982 -1.1621932 -0.28614107
3.7577202 -1.1130875 -1.7449003
3.9134846 -1.159227 -0.19033989
3.9034791 -1.1562632 -1.7004861
3.9128482 -1.1590384 -0.09474647
3.9226775 -1.1619501 -1.5975418
3.9100671 -1.1582147 0
3.921134 -1.1614928 -1.4884716
3.9241359 -1.1623821 -1.3829054
3.9154003 -1.1597944 0.19043307
3.9247811 -1.1625732 -1.277287
5.3467464 -1.5837785 0.38993868
3.9115963 -1.1586677 -1.169805
5.3308997 -1.5790845 0.51870859
3.9180245 -1.1605718 -1.0697341
3.9222794 -1.1618321 -0.96927118
5.3475199 -1.5840076 0.78382301
3.9071555 -1.1573522 -0.86616021
5.3456659 -1.5834584 0.91598094
3.914072 -1.1594011 -0.76912189
5.3406258 -1.5819654 1.0494422
2.849292 -0.8532027 -1.7639005
3.9135416 -1.1718855 -0.671179
2.9565129 -0.88530928 -1.7340302
3.9122324 -1.1714935 -0.57394987
3.1380658 -0.93967414 -1.7417396
3.9144254 -1.1721503 -0.47784403
3.3180528 -0.99357021 -1.7397472
3.9087985 -1.1704654 -0.38067117
3.5154407 -1.0526768 -1.7369949
3.9181213 -1.173257 -0.28600156
3.7579017 -1.1252801 -1.7465272
3.9176834 -1.1731257 -0.19071257
3.9053352 -1.1694282 -1.7027986
3.9170532 -1.1729372 -0.094932154
3.9299209 -1.1767902 -1.6019068
3.9142768 -1.1721058 0
3.9302735 -1.1768959 -1.4932599
3.9206698 -1.1740201 -1.3829054
3.9157693 -1.1725526 0.19061939
3.9268014 -1.1758561 -1.2790742
5.3343787 -1.5973463 0.38938063
3.915508 -1.1724744 -1.1720102
5.3166528 -1.5920385 0.51777971
3.9201243 -1.1738567 -1.0712535
3.9150863 -1.1723481 -0.96834904
5.3238239 -1.5941857 0.78103954
3.9093266 -1.1706234 -0.86740768
5.3258195 -1.5947834 0.91338706
3.9162631 -1.1727005 -0.7702328
5.3114319 -1.5904751 1.0446281
2.8039398 -0.84869576 -1.7373757
3.9176028 -1.185779 -0.67247593
2.9588797 -0.89559293 -1.7369692
3.9182177 -1.1859651 -0.57534164
3.1200523 -0.94437659 -1.7332891
3.9147329 -1.1849103 -0.47830859
3.3031166 -0.99978638 -1.7334633
3.9034028 -1.1814809 -0.38048539
3.5019207 -1.0599604 -1.7318609
3.9222612 -1.187189 -0.28655961
3.751049 -1.1353664 -1.7449003
3.9160976 -1.1853234 -0.19080573
3.9036145 -1.1815449 -1.7035694
3.9173837 -1.1857126 -0.095025003
3.9192796 -1.1862864 -1.5989969
3.9126966 -1.184294 0
3.9267642 -1.1885519 -1.4932599
3.924423 -1.1878433 -1.3854662
3.9122732 -1.1841657 0.19061939
3.9269502 -1.1886082 -1.2802658
5.3124294 -1.6079646 0.388125
3.9175324 -1.1857576 -1.173664
5.2947521 -1.6026142 0.51610762
3.9221799 -1.1871643 -1.0727731
3.9171789 -1.1856506 -0.9697324
5.3095922 -1.6071059 0.77964777
3.9133255 -1.1844842 -0.86907095
5.302175 -1.6048608 0.91014469
3.9240534 -1.1877314 -0.77245462
5.2972841 -1.6033806 1.0427767
2.8081393 -0.85853428 -1.7414565
3.9218254 -1.1990223 -0.67377293
2.928021 -0.89518571 -1.7203146
3.9205723 -1.1986392 -0.5761767
3.1393566 -0.95979756 -1.7454954
3.9133086 -1.1964184 -0.47854093
3.3003118 -1.0090065 -1.7334633
3.9038973 -1.193541 -0.38085699
3.5110483 -1.0734351 -1.7378504
3.9227464 -1.1993039 -0.28683862
3.7566001 -1.1485078 -1.7489676
3.9165938 -1.1974227 -0.19099207
3.9108887 -1.1956786 -1.7081946
3.9178815 -1.1978165 -0.095117845
3.9230781 -1.1994052 -1.6019068
3.918937 -1.1981392 0
3.9270246 -1.2006118 -1.4946281
3.9229028 -1.1993517 -1.3861066
3.9146826 -1.1968385 0.1908989
3.9290931 -1.2012442 -1.282053
5.2907472 -1.6175437 0.38686943
3.9160442 -1.1972548 -1.1742152
5.276926 -1.6133181 0.51480716
3.9207001 -1.1986781 -1.0732796
3.9175746 -1.1977227 -0.97065455
5.2899318 -1.6172943 0.77742106
3.9100027 -1.1954076 -0.86907095
5.2882361 -1.6167759 0.90852344
3.9207213 -1.1986847 -0.77245462
5.2796288 -1.6141443 1.0401845
2.7810757 -0.85875958 -1.7261536
3.9222331 -1.211134 -0.67442143
2.9238436 -0.90284437 -1.7193351
3.9153171 -1.2089983 -0.57589829
3.1214786 -0.96387148 -1.7370449
3.9156463 -1.2091 -0.47923782
3.3043115 -1.0203279 -1.7370541
3.9157703 -1.2091383 -0.38234323
3.5114911 -1.0843022 -1.7395617
3.9155695 -1.2090763 -0.28655961
3.7202084 -1.1487514 -1.7335116
3.915143 -1.2089446 -0.19108523
3.9022441 -1.2049617 -1.705882
3.9202521 -1.2105223 -0.095257111
3.9321737 -1.2142035 -1.606999
3.9117541 -1.2078981 0
3.9326348 -1.2143458 -1.4980482
3.9267802 -1.212538 -1.3886675
3.915143 -1.2089446 0.19108523
3.931196 -1.2139015 -1.2838403
5.2766776 -1.6293685 0.38617185
3.9163594 -1.2093202 -1.1753178
5.2552752 -1.6227598 0.51313508
3.9210346 -1.2107638 -1.0742927
3.9179337 -1.2098063 -0.97157681
5.2702556 -1.6273855 0.77519423
3.9159949 -1.2092077 -0.87115002
5.2723866 -1.6280437 0.906578
3.9173586 -1.2096288 -0.77245462
5.2581997 -1.6236628 1.0368518
2.7800064 -0.8680051 -1.7271739
3.9202929 -1.2240382 -0.67474562
2.9393008 -0.91774184 -1.7301115
3.9247334 -1.2254248 -0.57784677
3.0965216 -0.96683109 -1.7248387
3.9118285 -1.2213955 -0.47923782
3.3198559 -1.036563 -1.7469288
3.9081504 -1.220247 -0.38197166
3.5028911 -1.0937123 -1.7369949
3.9174654 -1.2231555 -0.28697816
3.7532065 -1.1718687 -1.7505946
3.9132328 -1.2218339 -0.1911784
3.9054859 -1.2194151 -1.7089653
3.9164298 -1.2228321 -0.095257111
3.9212265 -1.2243297 -1.6040891
3.9193947 -1.2237579 0
3.9288003 -1.2266946 -1.4980482
3.935612 -1.2288214 -1.3931491
3.9132328 -1.2218339 0.1911784
3.9291849 -1.2268146 -1.284436
5.2505841 -1.6393969 0.38463721
3.9235513 -1.2250557 -1.1786253
5.2349453 -1.634514 0.51164883
3.9153647 -1.2224996 -1.0737861
3.9271171 -1.226169 -0.97480464
5.2537737 -1.6403928 0.77352411
3.9233811 -1.2250025 -0.87364501
5.2502909 -1.6393054 0.90365982
3.9229195 -1.2248584 -0.77430612
5.2436919 -1.6372449 1.0350002
2.7990537 -0.8820011 -1.7404363
3.9208398 -1.2354838 -0.67539418
2.9352252 -0.92490977 -1.7291318
3.9196229 -1.2351003 -0.57756841
3.1091383 -0.979711 -1.7332891
3.9124067 -1.2328264 -0.47970241
3.2949712 -1.0382682 -1.7352587
3.9087415 -1.2316715 -0.38234323
3.4948435 -1.1012493 -1.7344278
3.925667 -1.2370048 -0.28781521
3.7274718 -1.1745521 -1.7400194
3.9119263 -1.2326751 -0.19127157
3.9040406 -1.2301902 -1.7097363
3.9189365 -1.234884 -0.09539637
3.9339998 -1.2396305 -1.6106364
3.9161777 -1.2340146 0
3.9345381 -1.2398002 -1.5014684
3.9323816 -1.2391206 -1.3931491
3.9119263 -1.2326751 0.19127157
3.9296019 -1.2382447 -1.2856274
5.2367597 -1.6501392 0.38393962
3.9221652 -1.2359014 -1.1791767
5.2173529 -1.644024 0.51034838
3.9195323 -1.2350717 -1.0758121
3.9238937 -1.236446 -0.97480464
5.2305713 -1.6481892 0.77074069
3.9164293 -1.2340939 -0.8728134
5.2309232 -1.6482999 0.90106589
3.9290724 -1.2380779 -0.77615768
5.2225165 -1.6456511 1.0316675
2.7703514 -0.88146883 -1.7241133
3.9248967 -1.2488214 -0.67669111
2.9359541 -0.93416011 -1.7310911
3.918046 -1.2466416 -0.57784677
3.1047075 -0.987854 -1.7323501
3.9146276 -1.245554 -0.48039931
3.3022776 -1.0507168 -1.7406449
3.9071841 -1.2431856 -0.38252902
3.4745281 -1.1055233 -1.7258712
3.9202962 -1.2473575 -0.28767568
3.720695 -1.1838486 -1.7383925
3.9198914 -1.2472287 -0.19183056
3.9041071 -1.2422066 -1.7112778
3.9173779 -1.2464291 -0.095442794
3.9216461 -1.2477871 -1.606999
3.9184337 -1.2467649 0
3.9364333 -1.2524921 -1.5035206
3.9271002 -1.2495224 -1.392509
3.912276 -1.2448057 0.1914579
3.9388645 -1.2532656 -1.2897978
5.2169218 -1.6599172 0.38282353
3.9132023 -1.2451004 -1.1775229
5.1975608 -1.6537569 0.50886208
3.9215989 -1.2477721 -1.0773317
3.9278436 -1.249759 -0.97664911
5.2108498 -1.6579852 0.76851392
3.9222887 -1.2479916 -0.87489247
5.209374 -1.6575156 0.89814776
3.9255998 -1.249045 -0.77615768
5.2029176 -1.6554613 1.0287051
2.7855823 -0.89596176 -1.7353354
3.9284689 -1.2635628 -0.67798805
2.9496036 -0.94871801 -1.7408879
3.9141102 -1.2589444 -0.57784677
3.1167183 -1.0024692 -1.7408007
3.9163685 -1.2596707 -0.48109621
3.2802448 -1.0550663 -1.7307702
3.9222162 -1.2615516 -0.38438684
3.4865255 -1.121415 -1.733572
3.9239552 -1.2621109 -0.28823373
3.7291327 -1.1994478 -1.7440867
3.921659 -1.2613724 -0.19211006
3.907213 -1.2567259 -1.7143614
3.9210567 -1.2611786 -0.095628485
3.935442 -1.2658056 -1.6142738
3.9164016 -1.2596813 0
3.9271119 -1.2631263 -1.5014684
3.9339776 -1.2653345 -1.3963503
3.9197576 -1.2607608 0.1920169
3.9330895 -1.265049 -1.289202
5.1983862 -1.6720221 0.38184696
3.9239125 -1.2620971 -1.181933
5.1828609 -1.6670287 0.50793314
3.9231851 -1.2618632 -1.0788512
3.9276032 -1.2632843 -0.97757137
5.1961884 -1.6713153 0.76712215
3.9202106 -1.2609065 -0.87530828
5.1872325 -1.6684346 0.89522958
3.931011 -1.2643805 -0.77800912
5.1789813 -1.6657807 1.0250021
2.7863419 -0.90479976 -1.7373757
3.923048 -1.2739186 -0.6776638
2.935334 -0.95318151 -1.7340302
3.9181139 -1.2723165 -0.57896018
3.1273432 -1.015532 -1.7483122
3.9147248 -1.2712159 -0.48132852
3.3027835 -1.0725021 -1.7442358
3.9148901 -1.2712696 -0.38401529
3.4627485 -1.1244471 -1.7233043
3.9318006 -1.2767608 -0.28907081
3.715342 -1.206471 -1.7392058
3.920022 -1.272936 -0.19220325
3.9054434 -1.2682019 -1.7151322
3.9270282 -1.2752111 -0.095860586
3.9336636 -1.2773658 -1.6150012
3.9166727 -1.2718484 0
3.934294 -1.2775705 -1.5055727
3.9340332 -1.2774858 -1.3976307
3.912421 -1.2704678 0.19183056
3.9404371 -1.2795653 -1.2927765
5.1804132 -1.6822188 0.38087034
3.9185445 -1.2724563 -1.1813818
5.1611395 -1.6759601 0.50626111
3.923327 -1.2740092 -1.0798643
3.9296131 -1.2760506 -0.97895473
5.1764312 -1.6809257 0.76489544
3.9185355 -1.2724533 -0.87572414
5.1675363 -1.6780373 0.89263558
3.9293342 -1.27596 -0.77837944
5.1649628 -1.6772015 1.0231506
2.7738376 -0.90984595 -1.7312546
3.9211264 -1.286168 -0.67798805
2.9275227 -0.96025616 -1.7310911
3.9218495 -1.2864051 -0.58007354
3.0957916 -1.01545 -1.7323501
3.9222608 -1.28654 -0.48272231
3.301285 -1.0828539 -1.7451334
3.914885 -1.2841208 -0.38438684
3.4800091 -1.1414771 -1.733572
3.922308 -1.2865555 -0.28865227
3.7100101 -1.2169198 -1.7383925
3.9181261 -1.2851838 -0.1922964
3.9069242 -1.2815095 -1.7174448
3.9194276 -1.2856108 -0.095767751
3.9298563 -1.2890315 -1.6150012
3.9242845 -1.2872038 0
3.9287002 -1.2886522 -1.5048885
3.9356265 -1.2909241 -1.3995514
3.9276173 -1.2882971 0.19276223
3.9329953 -1.2900611 -1.2915851
5.160233 -1.6926072 0.37975425
3.9238851 -1.2870729 -1.1841381
5.1391149 -1.6856802 0.50458902
3.9232061 -1.2868501 -1.0808772
3.9313574 -1.2895238 -0.9803381
5.1582484 -1.691956 0.76294702
3.922178 -1.2865129 -0.8773874
5.1531587 -1.6902866 0.89101446
3.9273989 -1.2882254 -0.77874976
5.1431561 -1.6870056 1.0198178
2.7841895 -0.92240012 -1.7394161
3.9285333 -1.3015205 -0.67993349
2.9279711 -0.97003484 -1.7330505
3.9255352 -1.3005271 -0.58118689
3.1296437 -1.0368488 -1.7530069
3.9221978 -1.2994214 -0.48318696
3.264127 -1.081403 -1.7271794
3.9205093 -1.2988621 -0.38531578
3.473175 -1.1506605 -1.7318609
3.9222615 -1.2994426 -0.28893131
3.7410707 -1.2394142 -1.7546619
3.9218814 -1.2993166 -0.19266906
3.90836 -1.294837 -1.7197573
3.9212892 -1.2991205 -0.09590701
3.93132 -1.3024436 -1.6171837
3.9261434 -1.3007287 0
3.9373477 -1.3044406 -1.5096768
3.9353764 -1.3037876 -1.4008319
3.9161921 -1.2974318 0.19238956
3.9436486 -1.3065281 -1.296351
5.1419315 -1.7035184 0.37877765
3.9255242 -1.3005235 -1.185792
5.1227484 -1.6971631 0.5034743
3.9285543 -1.3015274 -1.0834097
3.9275141 -1.3011827 -0.9803381
5.1344047 -1.7010249 0.76016355
3.9202003 -1.2987597 -0.87780321
5.1350069 -1.7012243 0.88874477
3.9291568 -1.3017269 -0.77986073
5.1232018 -1.6973133 1.0168554
2.7946544 -0.93453598 -1.7475775
3.9248836 -1.3124861 -0.67993349
2.941787 -0.98373729 -1.7428473
3.9256451 -1.3127407 -0.5817436
